# .PCD v0.7 - Point Cloud Data file format
VERSION 0.7
FIELDS x y z
SIZE 4 4 4
TYPE F F F
COUNT 1 1 1
WIDTH 1417
HEIGHT 1
VIEWPOINT 0 0 0 1 0 0 0
POINTS 1417
DATA ascii
0.12581335 -0.24162884 0.79177976
0.12565626 -0.23924011 0.79077566
0.12546214 -0.23687159 0.78974485
0.12559783 -0.23402224 0.78814054
0.12548341 -0.23163512 0.78718185
0.1250878 -0.22971408 0.7868259
0.12500505 -0.22732212 0.78589463
0.12466535 -0.2253886 0.78555667
0.12461957 -0.22298557 0.78466433
0.12432478 -0.22104004 0.78435218
0.1240483 -0.21908222 0.78402823
0.12409354 -0.21665637 0.78323734
0.12383237 -0.21470363 0.78292984
0.12389316 -0.21228044 0.78216106
0.12392564 -0.20987387 0.78137451
0.12392658 -0.20748469 0.7805571
0.1239269 -0.20510462 0.77972829
0.12389247 -0.20273773 0.77886885
0.1238315 -0.20038392 0.77798373
0.12374125 -0.19804604 0.77706432
0.12362783 -0.19572273 0.77611697
0.12325434 -0.19388051 0.77567244
0.12311403 -0.19158432 0.77469409
0.12298385 -0.1892869 0.77372831
0.12285518 -0.18699484 0.77275908
0.12271574 -0.18470743 0.7717936
0.12258693 -0.18242446 0.77082473
0.12244932 -0.18014827 0.76984948
0.12230484 -0.17788237 0.76886535
0.1221342 -0.17564093 0.7678473
0.12194081 -0.17342255 0.76679933
0.12172521 -0.17123319 0.76571703
0.12148697 -0.16907761 0.76459765
0.12122033 -0.16695565 0.76343775
0.12108726 -0.16434014 0.76171285
0.12075493 -0.16229731 0.76045787
0.12040907 -0.1602862 0.75917572
0.12016212 -0.15780212 0.7572791
0.11989826 -0.15533997 0.75534582
0.1196089 -0.15290554 0.75339085
0.11931615 -0.15048088 0.75142777
0.11905685 -0.14802736 0.74953049
0.11885916 -0.14554009 0.74771416
0.11874297 -0.14302444 0.74598843
0.11846618 -0.14095581 0.7448284
0.11849393 -0.1383784 0.74329191
0.1183356 -0.13624354 0.74229217
0.11822727 -0.13408583 0.74135202
0.11813316 -0.13191727 0.74044448
0.11776958 -0.13019106 0.7399627
0.11772856 -0.12799567 0.73912764
0.11741441 -0.12624696 0.73867518
0.11712546 -0.12448788 0.73823559
0.11712942 -0.12226792 0.73748815
0.11713505 -0.12005784 0.73672909
0.11686065 -0.11829142 0.73631006
0.11659028 -0.11653971 0.735856
0.11656972 -0.11434875 0.73507369
0.11654703 -0.11217834 0.73426396
0.11650219 -0.1100156 0.73345363
0.11643741 -0.10786974 0.73260838
0.11611762 -0.10616159 0.73206449
0.11602986 -0.1040353 0.7311734
0.11594559 -0.10192037 0.73028219
0.11587399 -0.099794917 0.72943658
0.11558004 -0.098081112 0.72886825
0.11551833 -0.095954061 0.72803736
0.1154827 -0.093822949 0.72724766
0.11547031 -0.09167432 0.72653216
0.11524046 -0.089912482 0.7260763
0.11526049 -0.087753132 0.72541636
0.11529569 -0.085601032 0.72478074
0.11533695 -0.08344727 0.72417414
0.11515447 -0.081663795 0.72380024
0.1152362 -0.079483226 0.72329086
0.11504722 -0.077707686 0.72290921
0.11512453 -0.07552889 0.72239196
0.1149414 -0.073758341 0.72202116
0.11476376 -0.071994379 0.72164232
0.11457397 -0.070273414 0.72117609
0.11456259 -0.068151288 0.72052723
0.1143432 -0.066476956 0.7199946
0.11428951 -0.064401709 0.7192471
0.1141998 -0.062370751 0.7183941
0.11408643 -0.060355552 0.71749741
0.11395597 -0.05835877 0.7165615
0.11379297 -0.056412581 0.71553558
0.11361746 -0.054473251 0.71450973
0.11353572 -0.052143164 0.71309006
0.11345031 -0.04983262 0.71163642
0.11312458 -0.048370149 0.71086901
0.11290245 -0.046518434 0.70971113
0.1128078 -0.04422646 0.7082597
0.11261495 -0.042344749 0.70718163
0.11246077 -0.040423311 0.70618469
0.11230504 -0.038506251 0.70519161
0.11216038 -0.036577791 0.70423084
0.11203521 -0.034631085 0.70331728
0.11191095 -0.032682721 0.70241708
0.11165232 -0.031179644 0.70174611
0.11154334 -0.029221481 0.70087475
0.11132726 -0.027686317 0.70025653
0.11122084 -0.025722574 0.69941252
0.11109461 -0.023805104 0.69849598
0.11106275 -0.021488814 0.69732565
0.11081769 -0.020015059 0.69658852
0.11067065 -0.018137472 0.69561398
0.11058582 -0.015895335 0.69437224
0.11043475 -0.014031655 0.69340777
0.11030527 -0.01214928 0.69249296
0.11016503 -0.010275734 0.69157046
0.11002613 -0.008400592 0.69066441
0.10988829 -0.0065230788 0.68977821
0.10985578 -0.0042134845 0.68881142
0.1097495 -0.0022844083 0.688061
0.1095584 -0.0007639692 0.68745106
0.10940941 0.00078194664 0.68688929
0.10926764 0.0023198344 0.68630946
0.1091452 0.0038563588 0.68571305
0.10904748 0.0057990053 0.68503201
0.10893986 0.0073379055 0.68444872
0.10884182 0.0088879326 0.68389177
0.10873201 0.010802061 0.68317139
0.10861591 0.012684764 0.68239141
0.10852108 0.014172062 0.68170911
0.10835673 0.016392021 0.6807434
0.10821792 0.018209195 0.67985404
0.10806692 0.019990183 0.67889595
0.10789986 0.022105729 0.6777088
0.10774172 0.023856718 0.67670083
0.10759456 0.025980042 0.67551535
0.10741477 0.027703855 0.67448401
0.10726167 0.029080311 0.67369634
0.10711642 0.030455803 0.67291862
0.10696635 0.032592926 0.6718033
0.10682623 0.034365669 0.67091143
0.10669652 0.035776313 0.67023158
0.10656295 0.037562694 0.66937995
0.10643445 0.039360851 0.66856134
0.10631606 0.040767808 0.66788876
0.10618528 0.042550776 0.66705358
0.10604996 0.044317577 0.6661945
0.10590959 0.04606577 0.66531187
0.10575952 0.047783151 0.66438001
0.1056011 0.049471594 0.66340286
0.10543925 0.051138576 0.6623987
0.10527176 0.052780852 0.66135621
0.10510346 0.054412104 0.66030478
0.10493269 0.056025054 0.65923202
0.10472427 0.0580195 0.65800685
0.10454935 0.059623063 0.65693885
0.10438038 0.061229739 0.65588492
0.10421141 0.062836155 0.65484154
0.10399114 0.064803898 0.65363854
0.10389023 0.066075973 0.65284377
0.10373269 0.06770432 0.65187573
0.103579 0.069338955 0.65093005
0.10349232 0.070645534 0.65019298
0.10334495 0.072300047 0.64929444
0.10320372 0.073970467 0.64843547
0.10311976 0.075296447 0.64772493
0.1029795 0.076973937 0.64689267
0.10284084 0.078646183 0.64606416
0.10270233 0.080310673 0.64523453
0.10261882 0.081644207 0.644521
0.10241768 0.083600231 0.64354086
0.10233652 0.084936559 0.64282906
0.10219412 0.086569801 0.64197904
0.1020516 0.088197894 0.64113426
0.10197717 0.089539476 0.64040476
0.10176246 0.091426574 0.63943648
0.10169131 0.092774682 0.63870817
0.10155004 0.094395183 0.63789403
0.10141091 0.096022114 0.63711774
0.10127478 0.097656094 0.63638496
0.10114044 0.099292748 0.63568908
0.10100621 0.10092915 0.635028
0.10096234 0.1023852 0.63449371
0.10083766 0.10404894 0.6339398
0.1007982 0.10553724 0.63346177
0.10067715 0.10721796 0.63299298
0.10064785 0.10874338 0.63260621
0.10053042 0.11044078 0.63222128
0.10050407 0.11198368 0.63187361
0.10047889 0.11353139 0.63153934
0.10045681 0.115077 0.6311968
0.10043827 0.11662789 0.6308738
0.10042117 0.11817715 0.63055551
0.10040417 0.11970964 0.63020444
0.10027476 0.12138703 0.62979209
0.10025351 0.12288421 0.62937772
0.1002302 0.12435332 0.62892514
0.10009439 0.1259817 0.62838084
0.10006689 0.1273894 0.6278376
0.099925287 0.12896106 0.62715667
0.099779382 0.13050139 0.62639219
0.099629492 0.13201129 0.62555766
0.099476211 0.13349167 0.62466151
0.099319883 0.13493133 0.62369061
0.099161968 0.13635094 0.62269104
0.099003553 0.13774292 0.62165052
0.098702073 0.13936391 0.62040299
0.098688141 0.14047566 0.61950868
0.098376878 0.14208548 0.61824983
0.09821596 0.14344215 0.6171838
0.098223634 0.14455639 0.61632925
0.097896002 0.1461935 0.61514544
0.097735412 0.14758892 0.61417514
0.097574003 0.14900203 0.6132468
0.097411603 0.1504284 0.61235619
0.097249061 0.15185831 0.61149096
0.097084969 0.1532954 0.61066198
0.096920617 0.15473945 0.60987037
0.096937709 0.15601991 0.60923105
0.096951894 0.15733193 0.60860914
0.096785799 0.15881988 0.60792041
0.0966198 0.16031258 0.60727894
0.096629284 0.16168472 0.60674489
0.096463054 0.16319619 0.6061843
0.096469544 0.16460258 0.60571706
0.096304215 0.16612466 0.60521591
0.096140169 0.16765748 0.6047613
0.096144646 0.16908683 0.60435396
0.095982067 0.17062515 0.60392016
0.095820196 0.17216022 0.60347748
0.095824286 0.17358153 0.60305834
0.095827885 0.17498419 0.60260564
0.095668465 0.17649782 0.60210568
0.095670387 0.17787628 0.6016205
0.095670126 0.17923529 0.60110986
0.095668055 0.18057038 0.60056829
0.095664017 0.18188459 0.60000527
0.095506988 0.18332548 0.59937066
0.095501639 0.18460581 0.59877211
0.095344111 0.1860218 0.59809285
0.095188007 0.18742685 0.59738725
0.095030554 0.18881181 0.59664071
0.094873175 0.19017376 0.59585142
0.094715074 0.19153234 0.59505951
0.094556704 0.19287807 0.59424728
0.094397701 0.19421238 0.59341747
0.094237924 0.19553882 0.59257799
0.0940779 0.19685636 0.59172809
0.093916669 0.19816341 0.59086645
0.093918458 0.19928803 0.59012574
0.093758248 0.2005855 0.58926684
0.093597375 0.20188668 0.58842319
0.093435436 0.20318888 0.58759201
0.093442567 0.20431472 0.58688092
0.093281247 0.20562123 0.58606946
0.093119107 0.20692581 0.58526403
0.092956185 0.20823796 0.58448255
0.092966788 0.20938675 0.58381855
0.092803359 0.21070658 0.5830642
0.092815369 0.21187006 0.58241689
0.092827484 0.21304561 0.58178097
0.092664577 0.21437247 0.58105689
0.092676818 0.21555871 0.58043879
0.092692696 0.21674824 0.57981849
0.092528455 0.21808535 0.57912976
0.092362471 0.21942608 0.57846189
0.092196077 0.22077121 0.57781422
0.092029959 0.22211248 0.57717538
0.091860674 0.22346686 0.57657403
0.091690481 0.22482242 0.57599187
0.091518708 0.22616909 0.57541513
0.091534287 0.22740975 0.57489347
0.091361746 0.22874278 0.57431477
0.13256231 -0.31027344 0.809663
0.13233548 -0.3081632 0.80960053
0.13217936 -0.30564314 0.808599
0.13202505 -0.30351973 0.80857861
0.13182375 -0.30102488 0.80754459
0.13167392 -0.29852268 0.80655074
0.13142908 -0.29646051 0.80645895
0.13125873 -0.29397038 0.80545145
0.13105184 -0.29150271 0.80442417
0.13086601 -0.28903249 0.80341208
0.13071463 -0.28655425 0.80242437
0.13056672 -0.2840789 0.80143613
0.13040718 -0.28161538 0.80044103
0.13023479 -0.27915999 0.79944324
0.13005759 -0.2767137 0.7984435
0.12970294 -0.27471387 0.79828036
0.12973174 -0.27182662 0.79645073
0.12961093 -0.26937908 0.79548055
0.12934825 -0.26735762 0.79536021
0.12923865 -0.26491556 0.79438841
0.12899558 -0.2628985 0.79427236
0.1289497 -0.26044744 0.79334283
0.12872373 -0.25842339 0.79322904
0.12855196 -0.25638533 0.79313797
0.12848341 -0.25394824 0.79219538
0.12821877 -0.25194001 0.79203695
0.12790591 -0.24994959 0.79183638
0.12782009 -0.24752788 0.79088306
0.12771167 -0.24511752 0.78991735
0.12763907 -0.24270225 0.78897572
0.12727959 -0.24074033 0.78871787
0.12734148 -0.23793383 0.78699344
0.12724188 -0.23554216 0.78603804
0.12714818 -0.23315409 0.7850883
0.12710151 -0.23075461 0.78417689
0.12705563 -0.22836177 0.78326964
0.12672728 -0.22640319 0.78301853
0.12674224 -0.22399877 0.78215963
0.12648533 -0.22202075 0.78195345
0.12621219 -0.22004952 0.78171992
0.12593518 -0.21807951 0.78146607
0.12570468 -0.21610051 0.78123492
0.12576367 -0.21369603 0.78043342
0.12580423 -0.21130131 0.77961987
0.12584312 -0.20891362 0.77880305
0.12585564 -0.2065379 0.77796412
0.12584668 -0.2041707 0.77710658
0.12579145 -0.2018225 0.77620518
0.12571202 -0.19948621 0.77527905
0.12561727 -0.197161 0.77433527
0.12549049 -0.19484983 0.7733686
0.12511389 -0.19296953 0.7730267
0.12499367 -0.19066684 0.77206534
0.12488347 -0.18836352 0.77111554
0.124782 -0.18605776 0.77017814
0.12466452 -0.18376473 0.76922345
0.12428959 -0.18193856 0.76884717
0.12415722 -0.17966557 0.76787686
0.12401762 -0.1774009 0.76690012
0.12385766 -0.17515323 0.76590103
0.12392314 -0.17244367 0.76430166
0.12369521 -0.17024116 0.7632376
0.12319749 -0.16857538 0.76270097
0.12313617 -0.16594118 0.76099187
0.12281685 -0.16384523 0.75981343
0.12231273 -0.16229635 0.7591638
0.12210835 -0.15976217 0.75734019
0.12185773 -0.15728909 0.75542122
0.12158082 -0.15483685 0.75349331
0.12129425 -0.152412 0.75152922
0.12100851 -0.1499915 0.74957031
0.1207802 -0.14753401 0.74769074
0.12061378 -0.14505175 0.74588192
0.12007815 -0.14346839 0.74521166
0.11999981 -0.14092132 0.74354577
0.12008179 -0.1383353 0.74201429
0.11992706 -0.13619357 0.74102259
0.11982056 -0.13403119 0.74008673
0.11941974 -0.13230707 0.73960525
0.11937354 -0.13011476 0.73874235
0.11903621 -0.12835987 0.73830181
0.11901796 -0.12615894 0.7374891
0.11872891 -0.12438674 0.7370832
0.11874307 -0.122177 0.73630881
0.1184724 -0.1204004 0.73592985
0.11847886 -0.11819806 0.73515004
0.11820702 -0.1164232 0.73476088
0.11820146 -0.11424125 0.73396611
0.11818404 -0.11206599 0.73317075
0.11813644 -0.1099168 0.73232496
0.11782487 -0.10818907 0.7318415
0.11774013 -0.10605492 0.73096466
0.11742557 -0.10432849 0.73044515
0.11733931 -0.10220633 0.72954929
0.11727059 -0.10008679 0.72868484
0.11719958 -0.097965993 0.7278192
0.11715008 -0.095838122 0.7269907
0.1168751 -0.094093606 0.7264899
0.11686187 -0.091953665 0.7257207
0.11688449 -0.089813538 0.72498983
0.11691494 -0.087667704 0.72430629
0.11672205 -0.085866041 0.72395587
0.11679725 -0.083704755 0.72337997
0.11688745 -0.08154425 0.72281659
0.11699951 -0.079378039 0.72228009
0.11682653 -0.077572472 0.72198939
0.11663574 -0.075792998 0.72164267
0.1164602 -0.074007824 0.72131336
0.11628852 -0.072230913 0.72097361
0.11610451 -0.070497125 0.72056794
0.1161105 -0.068396792 0.71989709
0.11608969 -0.0663113 0.71917415
0.11584897 -0.064652711 0.71865243
0.11578213 -0.062624961 0.71782041
0.11568825 -0.060607333 0.71694875
0.11556416 -0.058621306 0.7160213
0.11540981 -0.056656107 0.71505517
0.11523384 -0.054724321 0.71402121
0.11518887 -0.052393481 0.71261501
0.11511532 -0.050103493 0.7111271
0.11487771 -0.048246283 0.70997214
0.11465413 -0.04638353 0.70883816
0.11461983 -0.044068929 0.70742691
0.11443114 -0.042176094 0.70637691
0.11408717 -0.040697645 0.70567429
0.1139298 -0.038781118 0.70467436
0.11379086 -0.036847204 0.7037183
0.11366463 -0.03490388 0.70279038
0.11355028 -0.032951292 0.70189416
0.11328847 -0.031424042 0.70126134
0.11319831 -0.029441511 0.70044029
0.11310529 -0.027470989 0.69960451
0.11300264 -0.025522903 0.69873703
0.11288172 -0.023600833 0.69783264
0.11274491 -0.021701895 0.69689095
0.11260407 -0.019812312 0.69594264
0.11246835 -0.017920014 0.69501281
0.1123265 -0.016040614 0.69406682
0.11217479 -0.014177831 0.69309807
0.11203208 -0.012308496 0.69215536
0.11201335 -0.01004999 0.69103211
0.11177231 -0.0085465033 0.69035655
0.11176272 -0.0062587433 0.68932021
0.11163682 -0.0043669716 0.68849981
0.11144789 -0.0028203689 0.6879245
0.11136563 -0.00087945361 0.68720978
0.11118473 0.0006648936 0.68664199
0.1110351 0.0022267797 0.68610489
0.1108938 0.0037816497 0.68554354
0.11081131 0.0057219337 0.6848613
0.11067955 0.007249563 0.68425477
0.11056539 0.008804231 0.68369871
0.11046101 0.010720532 0.68299425
0.11034934 0.012610912 0.68223715
0.11021043 0.014121964 0.68161732
0.11009947 0.016307864 0.68056554
0.10996163 0.018124232 0.67967516
0.10980662 0.019897608 0.67870122
0.10964818 0.021654561 0.67770606
0.10951758 0.023777964 0.67653626
0.10932436 0.025151074 0.67571795
0.1091738 0.027230976 0.67447281
0.10902982 0.028996047 0.67352849
0.10886691 0.030731134 0.672539
0.10872062 0.032493383 0.67161322
0.10858632 0.03427228 0.67073321
0.10843329 0.035690144 0.67006689
0.10830843 0.037484363 0.66922933
0.10818848 0.03928744 0.66841751
0.10804577 0.040706698 0.66777265
0.10792072 0.042492043 0.66694361
0.10779168 0.04462212 0.66588908
0.10764898 0.046005163 0.66520071
0.1075042 0.047735453 0.66429418
0.10734472 0.049428038 0.66332555
0.10718862 0.051116414 0.66235882
0.10702999 0.052788552 0.66137004
0.10686426 0.054436255 0.66035008
0.10668565 0.056048024 0.65927327
0.10647959 0.058007523 0.65798706
0.10633671 0.059265252 0.657139
0.10612638 0.061220516 0.65587276
0.10595509 0.062828682 0.65483296
0.10577364 0.064820625 0.65365821
0.10563705 0.066084526 0.65285599
0.105481 0.06771978 0.65189677
0.10532577 0.069354855 0.65095121
0.10521157 0.070651188 0.65020192
0.10506216 0.072300129 0.64929205
0.10491688 0.073958322 0.64841175
0.10481712 0.075285465 0.64770573
0.10467723 0.076958328 0.64686346
0.10453793 0.078625821 0.64602506
0.10439795 0.080286086 0.64518732
0.10430535 0.081624039 0.64448148
0.10416726 0.08329308 0.64367288
0.10402693 0.084938981 0.64283401
0.10388523 0.086572498 0.64198452
0.10374285 0.088198937 0.64113706
0.10365403 0.08954189 0.64040709
0.1034572 0.091434121 0.6394546
0.10331187 0.093039222 0.63861692
0.10316911 0.09464743 0.63780642
0.10309091 0.096021578 0.63711715
0.1029553 0.097650662 0.63637364
0.10282315 0.09928716 0.63567835
0.10269231 0.10092427 0.63501543
0.10263867 0.10237756 0.63447505
0.10251901 0.10403953 0.63391662
0.10247407 0.10553431 0.63345391
0.10236085 0.10721575 0.63298708
0.10232306 0.10873765 0.63259095
0.10221373 0.11043072 0.63219488
0.10218379 0.11197863 0.6318627
0.10215347 0.11352959 0.63153505
0.1021257 0.11508381 0.63121724
0.1020972 0.11662915 0.63087744
0.10198847 0.11833344 0.63053292
0.10195988 0.11987088 0.63018262
0.10192977 0.12138947 0.62979883
0.10189781 0.12288667 0.62938285
0.10177391 0.12453277 0.62887132
0.10173695 0.12597774 0.62836975
0.10169799 0.12738901 0.6278345
0.10146399 0.129168 0.62705582
0.10141806 0.13050143 0.62639034
0.1012686 0.13201687 0.6255666
0.10111567 0.13350278 0.62468082
0.10095796 0.13495171 0.62372649
0.10079849 0.13637975 0.62274081
0.10063637 0.13777781 0.62170953
0.10034733 0.13940419 0.62047708
0.10031314 0.14052922 0.61959624
0.10001355 0.14215468 0.61837047
0.099847518 0.14351648 0.61731142
0.0996828 0.1448916 0.6162858
0.099519424 0.14628564 0.61530304
0.09935569 0.14768769 0.61434627
0.09919183 0.14910054 0.61342096
0.099027447 0.15052886 0.61253732
0.098865151 0.15196733 0.61169326
0.098700538 0.15340585 0.61087447
0.098537773 0.1548529 0.61009407
0.098543294 0.15612543 0.60944873
0.098548837 0.15743078 0.60882354
0.098554119 0.15876189 0.60821098
0.098388381 0.16026323 0.60755575
0.098223828 0.16176951 0.60694826
0.098225236 0.16315433 0.60643154
0.098061845 0.16467436 0.60589582
0.098060563 0.16608422 0.60543287
0.097743176 0.16772437 0.60492134
0.097742014 0.16914542 0.60449702
0.097738855 0.17056577 0.60407311
0.09743122 0.1722022 0.60356838
0.097428836 0.17361416 0.60312933
0.097424708 0.1750152 0.60267353
0.097271256 0.17651902 0.6021471
0.097265072 0.17788883 0.60164529
0.097255304 0.17924307 0.60112625
0.097243033 0.18057288 0.60057563
0.097228318 0.18188149 0.6000036
0.097075514 0.18331937 0.59936094
0.097059891 0.18459752 0.59875935
0.096767686 0.18617444 0.59801644
0.09675052 0.18742028 0.597377
0.096595153 0.18880315 0.59662515
0.096301675 0.19034049 0.59576464
0.096145064 0.19170095 0.59496659
0.096126422 0.19287977 0.59424978
0.095827945 0.19439532 0.59333074
0.095667019 0.1957261 0.59249049
0.095650829 0.19686703 0.59174633
0.095489942 0.19817834 0.59089231
0.095475525 0.19930482 0.59015453
0.095165059 0.20079236 0.58919394
0.095154926 0.20190965 0.58846265
0.094993077 0.20321266 0.58763355
0.094830379 0.20451906 0.58681667
0.094825923 0.20564835 0.5861153
0.094664268 0.20695874 0.58531982
0.094501719 0.20827289 0.5845421
0.094501987 0.20942272 0.58388013
0.094339393 0.21074617 0.58313262
0.094342813 0.21191165 0.58248907
0.09434709 0.2130899 0.58186007
0.094352759 0.21427177 0.58123326
0.094190836 0.21560316 0.5805226
0.094200201 0.21679626 0.57990915
0.094037257 0.21813364 0.57922411
0.093872428 0.21947518 0.57855892
0.093707725 0.22081882 0.57790899
0.093541585 0.22216326 0.57727587
0.0933742 0.22351699 0.57667053
0.093205757 0.22487356 0.57608658
0.093035012 0.22622252 0.57551175
0.093045577 0.22746152 0.57499313
0.092873819 0.22880034 0.57442147
0.13344234 -0.30888164 0.80538338
0.13308842 -0.30682716 0.8052581
0.13298245 -0.30431014 0.80427748
0.13284431 -0.30180776 0.80328709
0.13269164 -0.2993125 0.80228943
0.13255398 -0.29681793 0.80130178
0.13238634 -0.29433903 0.80030084
0.13222109 -0.2918649 0.7993021
0.13206638 -0.2893934 0.79830974
0.13205092 -0.28649884 0.79642147
0.13187522 -0.2840465 0.79542017
0.13169892 -0.28159586 0.79442286
0.13150746 -0.27915582 0.79342139
0.13132212 -0.27672458 0.79242015
0.13104236 -0.27470288 0.79232192
0.13091509 -0.27226466 0.79134119
0.13081472 -0.26982453 0.79037112
0.13066661 -0.26777512 0.79032832
0.13059708 -0.26533675 0.78937459
0.13038507 -0.26331365 0.78928727
0.13039836 -0.26086602 0.7883774
0.13038677 -0.25842807 0.78745353
0.1302246 -0.25639203 0.78739536
0.13020743 -0.25396279 0.78647834
0.12999634 -0.25194111 0.78638297
0.12975311 -0.24992804 0.78626055
0.12948413 -0.2479229 0.78612149
0.12924047 -0.24591349 0.78598952
0.12917435 -0.24350826 0.78504598
0.12914319 -0.24109973 0.78412575
0.12907478 -0.23870569 0.78318518
0.12901275 -0.23631464 0.78224915
0.12898032 -0.23392062 0.78133237
0.12872642 -0.23192757 0.78118205
0.12873684 -0.22952871 0.78029585
0.12876061 -0.22713666 0.77942592
0.12851103 -0.22514835 0.77927053
0.128592 -0.22274871 0.77844071
0.12835239 -0.22075938 0.77828497
0.12812622 -0.21876858 0.77813101
0.12789507 -0.2167823 0.77796441
0.12792496 -0.21440402 0.7771067
0.12769453 -0.21242154 0.77693611
0.12767254 -0.21006422 0.77604294
0.12769541 -0.20769769 0.77518153
0.12767346 -0.20534748 0.77428323
0.12764451 -0.20300208 0.77338129
0.12756133 -0.20067517 0.77243495
0.12747797 -0.19835652 0.77149004
0.12736949 -0.19604719 0.7705254
0.12727851 -0.19373494 0.76958215
0.12693414 -0.19181849 0.76934463
0.12684941 -0.18951096 0.76840466
0.12677807 -0.18720573 0.76748377
0.12642796 -0.18530867 0.7672258
0.12636435 -0.18300416 0.76630783
0.12626526 -0.18071391 0.76536328
0.12591192 -0.17884718 0.76508868
0.12576349 -0.17659195 0.76410097
0.12561502 -0.1743395 0.76311707
0.12571084 -0.17165685 0.76147312
0.12547313 -0.16945669 0.76041663
0.12500961 -0.16770369 0.76002383
0.12472124 -0.1655605 0.75890857
0.12439199 -0.1634583 0.75774938
0.12403055 -0.16139582 0.75654644
0.12382818 -0.15889299 0.75467908
0.12359303 -0.15642327 0.75276989
0.12314028 -0.15444218 0.75146759
0.12285168 -0.15202083 0.74950749
0.12240912 -0.15003541 0.74821061
0.12238352 -0.14712939 0.74570912
0.12179247 -0.14553626 0.74508005
0.12170447 -0.14301741 0.7433331
0.12143925 -0.14091425 0.74222279
0.12151625 -0.13833331 0.74065661
0.1213634 -0.13618892 0.73966181
0.12126924 -0.13401948 0.73872781
0.12119982 -0.13184567 0.73782861
0.12084688 -0.13007963 0.73743916
0.12084026 -0.1278801 0.7366066
0.12052225 -0.12610011 0.73622698
0.12022133 -0.12431481 0.73586488
0.12025171 -0.12211077 0.73508257
0.11997444 -0.12032159 0.73472852
0.11971727 -0.11854642 0.73432571
0.11945444 -0.11676618 0.73394704
0.11945816 -0.1145815 0.73315257
0.11944109 -0.11241073 0.73236585
0.11940519 -0.11025256 0.73152131
0.11935135 -0.1081105 0.73067254
0.1192899 -0.10598589 0.72977918
0.11921165 -0.10386725 0.72889793
0.1191214 -0.10176044 0.72798127
0.11878935 -0.10001379 0.72750801
0.11872648 -0.097893566 0.72665769
0.11867586 -0.095774345 0.72581673
0.11865213 -0.093654044 0.72497809
0.11838271 -0.091872022 0.72457737
0.11841346 -0.089738913 0.72382659
0.11848055 -0.087592684 0.72316051
0.11856813 -0.085449584 0.72252411
0.11838667 -0.083633639 0.72224098
0.11851532 -0.081475876 0.72167885
0.1183543 -0.079655103 0.72143006
0.11819421 -0.077846877 0.72117114
0.11802948 -0.07605429 0.72087151
0.11812542 -0.073916323 0.72027797
0.11793992 -0.072139233 0.71995324
0.11774936 -0.070380732 0.71960777
0.11754645 -0.068660147 0.7192111
0.11753902 -0.066597626 0.71846604
0.1173022 -0.064943925 0.71797484
0.11725676 -0.062906101 0.71717864
0.11717568 -0.060901713 0.71632248
0.1170492 -0.058910336 0.71543384
0.11690111 -0.056942526 0.71447992
0.11673222 -0.055007365 0.71345574
0.11670695 -0.052712202 0.71201193
0.11665453 -0.050438274 0.71050411
0.11641979 -0.048577327 0.70936054
0.11619968 -0.046694692 0.70826775
0.11617423 -0.04439244 0.70683736
0.1159765 -0.042505614 0.70577133
0.11580617 -0.040593788 0.70475757
0.11565737 -0.038666185 0.70378095
0.11552325 -0.03673242 0.70283234
0.11541443 -0.034776099 0.70194077
0.115118 -0.033231482 0.70134866
0.11502668 -0.031261206 0.70049351
0.11493819 -0.029299397 0.69963342
0.11467434 -0.027741019 0.69905466
0.11475738 -0.025388792 0.69793463
0.11463945 -0.02346674 0.69703686
0.11435952 -0.021941679 0.69639271
0.11440074 -0.01964161 0.69524097
0.1142648 -0.017754421 0.69430882
0.11412926 -0.015871527 0.69337904
0.11383045 -0.01437775 0.69266981
0.11383087 -0.012135037 0.69149148
0.11370613 -0.010250548 0.69059783
0.11359617 -0.008351298 0.6897487
0.11349182 -0.0064491355 0.68891996
0.11340613 -0.004533825 0.68813127
0.11317354 -0.0029909539 0.68755627
0.11310632 -0.0010509485 0.6868422
0.11291539 0.00051183475 0.68631017
0.11274654 0.0020819474 0.68578166
0.11258962 0.0036457262 0.68524367
0.1124476 0.0052171955 0.68472278
0.11232201 0.0067716572 0.68416703
0.11224348 0.0086874655 0.68344826
0.11214737 0.01058737 0.68270874
0.11204754 0.01248338 0.6819638
0.11188038 0.013999272 0.68136442
0.11179701 0.016171522 0.68027741
0.11165765 0.017974585 0.6793626
0.11150591 0.019759549 0.67841315
0.11135099 0.021536918 0.67746693
0.1112335 0.023623321 0.67622495
0.11100806 0.02498989 0.67539674
0.11090717 0.027110895 0.67423207
0.11074044 0.028842822 0.67322922
0.11058827 0.030593814 0.6722753
0.11044877 0.032363545 0.67136824
0.11031935 0.034145206 0.67049068
0.11020034 0.03594489 0.66965955
0.11006873 0.037727527 0.66880596
0.10990193 0.0391641 0.66818553
0.10974666 0.040608548 0.66758049
0.10962765 0.042389523 0.66674823
0.10954117 0.044537295 0.66573662
0.1093691 0.045917358 0.66503739
0.10924419 0.047685463 0.66420048
0.1090899 0.049389038 0.66325307
0.10893452 0.051083364 0.66229743
0.10875837 0.05238932 0.66150016
0.10859531 0.054391254 0.66026831
0.10841662 0.056012288 0.65920979
0.10823926 0.057629302 0.6581533
0.10806181 0.059237849 0.65709049
0.10789573 0.061232314 0.65589136
0.10771962 0.062841877 0.6548543
0.1075337 0.064797848 0.65362132
0.10737236 0.066064976 0.65282124
0.107214 0.067697294 0.65185881
0.10705408 0.069331221 0.65090907
0.10691911 0.070622198 0.65014935
0.10676721 0.072266832 0.64923167
0.10662324 0.073928304 0.64835638
0.10650908 0.075254031 0.64764625
0.10637322 0.076942191 0.64683354
0.10623626 0.078614123 0.64600253
0.10609973 0.080280371 0.6451754
0.10599042 0.081623629 0.64448076
0.10585222 0.083278075 0.64364296
0.1057117 0.084920526 0.64279568
0.10557101 0.086556949 0.64195234
0.10543182 0.088192523 0.64112413
0.10532884 0.089538313 0.64039463
0.10515024 0.091434836 0.63945651
0.10500965 0.093045518 0.63863373
0.10487004 0.094655171 0.6378262
0.1047738 0.096028268 0.63713342
0.10464349 0.097658366 0.6363945
0.10451805 0.099294752 0.63569927
0.10439601 0.10093305 0.6350407
0.10432538 0.10238508 0.63449502
0.10421126 0.10403888 0.63391393
0.10415436 0.10553444 0.63345486
0.10405283 0.10721173 0.63297796
0.10400266 0.10873207 0.63257581
0.10391188 0.11042964 0.63218713
0.10387184 0.11197735 0.63185495
0.10383013 0.11352604 0.6315245
0.10373866 0.11523051 0.63117319
0.10369982 0.11678275 0.6308527
0.10366164 0.11832704 0.6305148
0.10362153 0.11986198 0.63015807
0.10352056 0.1215496 0.6297456
0.10347348 0.12305109 0.62931705
0.10342461 0.12452412 0.62884992
0.10337425 0.12596951 0.62835294
0.10324751 0.12756988 0.62771732
0.10311464 0.12915808 0.62703437
0.10305192 0.13049424 0.62637311
0.10290527 0.13200776 0.62554497
0.10275321 0.13349783 0.62466937
0.10259482 0.13495018 0.62372118
0.10243391 0.13638639 0.62275028
0.10227009 0.13779643 0.62174004
0.10199878 0.1394455 0.62055415
0.1018253 0.14082363 0.61949891
0.10165546 0.1422057 0.61846185
0.10148531 0.14358027 0.61742395
0.10131741 0.14497067 0.61642396
0.10114976 0.1463653 0.61544144
0.10083715 0.14802404 0.61434776
0.10081859 0.14919794 0.61359417
0.10065281 0.15062986 0.61272019
0.10048754 0.1520647 0.61187524
0.10032631 0.15351206 0.61107641
0.100318 0.15475914 0.61039841
0.10015581 0.15622446 0.60965121
0.10015123 0.15752108 0.60901791
0.10014848 0.15884925 0.60840762
0.099984817 0.16035314 0.60776323
0.099824503 0.16186272 0.60716772
0.099817485 0.16323791 0.60663575
0.099659517 0.1647574 0.60609901
0.099650465 0.1661576 0.60561866
0.099495977 0.16768093 0.60512161
0.099345118 0.16920543 0.60464102
0.09933418 0.17061685 0.60419732
0.099186197 0.1721392 0.60371709
0.099041201 0.17365395 0.60321522
0.099025562 0.17503989 0.6027261
0.099008061 0.17640923 0.60221958
0.098861434 0.17790265 0.60167116
0.098841071 0.17924783 0.60113591
0.098817073 0.18056828 0.60056847
0.098668389 0.18201904 0.59993857
0.098640814 0.18331355 0.59935248
0.098491549 0.18474153 0.59868097
0.098342001 0.18616432 0.59799641
0.098191239 0.18757208 0.59727997
0.098039061 0.1889592 0.59652519
0.097886398 0.19033569 0.59575236
0.097732209 0.19169836 0.59495777
0.097576961 0.1930503 0.59414649
0.09741962 0.19438982 0.59331971
0.097260654 0.1957258 0.59249043
0.097096808 0.197047 0.5916391
0.097066283 0.19818243 0.59090072
0.096904717 0.19949205 0.59005135
0.09674152 0.20080042 0.58920985
0.096713997 0.20192122 0.58848363
0.09655305 0.20322473 0.58765566
0.096391298 0.20453441 0.58684403
0.096372306 0.20566617 0.58614576
0.096211694 0.20698121 0.58535832
0.096050344 0.20829837 0.58458632
0.096038714 0.20945117 0.58392859
0.095877662 0.21077757 0.58318722
0.095870465 0.21194799 0.58255225
0.095865421 0.21312796 0.58192676
0.095862813 0.21430781 0.5813008
0.095702946 0.21564727 0.58060116
0.095705874 0.21683621 0.57998842
0.095543504 0.21817677 0.57931006
0.095547564 0.21938103 0.57871938
0.095218629 0.22085983 0.57799345
0.095053963 0.22220671 0.577362
0.094889507 0.22356296 0.57675707
0.09472324 0.22492032 0.57617116
0.09472657 0.22615881 0.57565749
0.094559029 0.22751038 0.57508463
0.094564319 0.22874966 0.57456487
0.13442494 -0.30785838 0.80214775
0.13428742 -0.3053546 0.80115789
0.13390204 -0.30332625 0.8010233
0.13397484 -0.30037487 0.79916281
0.13379133 -0.2978999 0.79815662
0.13384978 -0.29496649 0.79629117
0.13361727 -0.29251772 0.79526818
0.13338406 -0.29007336 0.79424405
0.13314527 -0.2876364 0.79321891
0.13312417 -0.28475732 0.79132426
0.13287692 -0.28233397 0.79029822
0.13282031 -0.27948377 0.78839171
0.13258363 -0.27707347 0.78736848
0.13236289 -0.27466813 0.78634989
0.13206525 -0.27266034 0.78625578
0.13194831 -0.27023995 0.78527677
0.13185881 -0.2678192 0.78430951
0.13179508 -0.26539731 0.78335267
0.13161886 -0.26337022 0.78329885
0.13159272 -0.2609528 0.78235734
0.13162185 -0.25852773 0.78144258
0.13147725 -0.25649387 0.78140289
0.13149174 -0.25408128 0.7804842
0.13130641 -0.25206411 0.78041553
0.13119148 -0.2500242 0.78038388
0.13119222 -0.24762002 0.77946699
0.13102864 -0.24559604 0.77940816
0.13080326 -0.24358819 0.77931029
0.13082059 -0.24118614 0.77840739
0.13062921 -0.23917377 0.77832282
0.13062073 -0.23678492 0.77740639
0.13042678 -0.23477989 0.77731484
0.13047229 -0.23238668 0.77643245
0.13052888 -0.22999592 0.77555496
0.13041481 -0.22797722 0.77551812
0.13048762 -0.22559144 0.77466077
0.13050856 -0.22321706 0.7737608
0.13033222 -0.2212171 0.77368158
0.13009788 -0.21922989 0.77355218
0.12990759 -0.21723466 0.77344954
0.12966648 -0.21525259 0.77330881
0.12962256 -0.21291044 0.77237719
0.12935616 -0.21094264 0.77222228
0.12929064 -0.20861328 0.77128071
0.12919843 -0.2062936 0.77031726
0.12912565 -0.2039753 0.76936811
0.12902385 -0.20166758 0.76839781
0.12892167 -0.19936569 0.76742953
0.12883447 -0.19706431 0.76646787
0.12863831 -0.19509336 0.76637262
0.1285847 -0.19279039 0.76543891
0.12855655 -0.19048308 0.76452923
0.12830548 -0.18852936 0.76439583
0.12828644 -0.18621872 0.76349372
0.12802212 -0.18428221 0.76334327
0.12795088 -0.18199205 0.76240587
0.1276606 -0.18007755 0.76222748
0.12757452 -0.1778017 0.76128513
0.1274711 -0.17553665 0.76033098
0.12708843 -0.17368016 0.76007253
0.12694415 -0.17144026 0.75909084
0.12676866 -0.16921845 0.75808561
0.12632716 -0.16744216 0.75775313
0.12629701 -0.16485575 0.75598502
0.12597196 -0.16273731 0.75485992
0.12561007 -0.16065538 0.75369745
0.12541756 -0.15816829 0.75180966
0.12517995 -0.15571506 0.74988979
0.12473331 -0.15370077 0.74865413
0.12424978 -0.15170255 0.74738294
0.12383607 -0.14967673 0.74615079
0.12345951 -0.14762621 0.74492717
0.12328522 -0.1451425 0.74309099
0.1232297 -0.14261968 0.74135476
0.12299468 -0.14049703 0.74028689
0.12313641 -0.13793898 0.73870027
0.12301961 -0.13578157 0.73774195
0.12295811 -0.13360834 0.73683441
0.12290664 -0.13143779 0.73593873
0.12254345 -0.1296542 0.73560178
0.12220779 -0.12786131 0.73526901
0.12188837 -0.12606527 0.73492837
0.12161746 -0.12426136 0.73460913
0.1216442 -0.12206278 0.73380721
0.12168004 -0.11987218 0.73302203
0.12139931 -0.11807853 0.7326901
0.12141792 -0.11590337 0.73187083
0.12143213 -0.11374032 0.73106325
0.12143245 -0.11158375 0.73024887
0.12139627 -0.10944727 0.72939736
0.12134566 -0.10732655 0.72851801
0.12127271 -0.10521995 0.72761512
0.12089333 -0.10346996 0.72720081
0.12053499 -0.10173233 0.72672087
0.12045559 -0.099624597 0.72584063
0.12038659 -0.097507298 0.72495508
0.12035876 -0.095396109 0.72409809
0.1200686 -0.093617149 0.7236982
0.1200823 -0.091491744 0.72293717
0.11983711 -0.089678451 0.72262573
0.11991979 -0.087536447 0.72196865
0.12005097 -0.085391492 0.7213189
0.11987587 -0.08358191 0.72103655
0.11973346 -0.081751421 0.7208057
0.11957458 -0.079932056 0.72055382
0.11972222 -0.077801101 0.71995997
0.11957491 -0.075978994 0.71973515
0.11941051 -0.07420516 0.71943676
0.119243 -0.072424009 0.71914101
0.11931387 -0.070325345 0.71850395
0.1190972 -0.068590507 0.71813756
0.11887389 -0.066891462 0.71772629
0.11886628 -0.064865813 0.71693814
0.11880606 -0.062814824 0.71620512
0.11873144 -0.06080607 0.7153554
0.11862065 -0.058826093 0.71444631
0.11848049 -0.05688512 0.71344197
0.11849807 -0.054584578 0.71200848
0.1183023 -0.052681223 0.71094
0.11808135 -0.050796177 0.7098437
0.1180301 -0.04852584 0.70834047
0.11780613 -0.046648614 0.7072444
0.117793 -0.04438436 0.70573539
0.11740503 -0.042872909 0.70509714
0.11724306 -0.040948097 0.70408887
0.11710432 -0.039018612 0.70310014
0.11698312 -0.037061553 0.70218569
0.11687712 -0.035102535 0.70129824
0.11657441 -0.033539228 0.70074099
0.11649796 -0.031573851 0.6998632
0.1164287 -0.029591063 0.69903058
0.11636112 -0.027631985 0.69818181
0.11628088 -0.025678979 0.69733727
0.1161853 -0.023737218 0.69647527
0.11608158 -0.021811541 0.6955927
0.11615977 -0.019542318 0.69439495
0.11602125 -0.017656164 0.69346482
0.11569927 -0.016138414 0.69280833
0.11557213 -0.01425395 0.69189113
0.11544198 -0.0123775 0.69096917
0.11533755 -0.010479449 0.69010544
0.11523719 -0.0085816011 0.68925267
0.11515909 -0.0066651213 0.68844944
0.11507774 -0.0047558392 0.6876511
0.11483725 -0.0031917158 0.68711722
0.11478281 -0.0012549185 0.68639386
0.11457477 0.00031906232 0.68587983
0.11439388 0.0018968895 0.68537158
0.11422127 0.0034673063 0.68484378
0.11416856 0.0054113725 0.68418527
0.11400061 0.0069834781 0.68367398
0.11384577 0.0085486015 0.68314838
0.11377172 0.01043721 0.68238521
0.11368123 0.01231464 0.68161148
0.11350442 0.013812842 0.68098348
0.113444 0.015986849 0.67989677
0.11330251 0.017797641 0.67899823
0.11314902 0.019587098 0.67806101
0.11298408 0.021351466 0.6770913
0.11289553 0.023430238 0.67583442
0.11273409 0.02518305 0.6748575
0.1125643 0.026914662 0.6738475
0.11240788 0.028662857 0.67287886
0.11238065 0.030790515 0.67174959
0.11223445 0.032555904 0.6708318
0.11210169 0.034334112 0.66996229
0.11188158 0.035767611 0.66932011
0.11175811 0.037554204 0.6684767
0.11157548 0.039000962 0.66787213
0.11147599 0.040818363 0.66710287
0.11136722 0.042618115 0.66630447
0.11126254 0.044417512 0.66551393
0.11106823 0.045815665 0.66484678
0.11093558 0.047559194 0.66396666
0.11079551 0.049287394 0.66306633
0.11064469 0.050990976 0.66212988
0.11045059 0.052319717 0.66136754
0.11030751 0.054313444 0.66012806
0.11011766 0.055605553 0.65931648
0.10996801 0.057603683 0.65810651
0.10978729 0.059216432 0.65705168
0.10962962 0.061182547 0.65580678
0.1094484 0.062793076 0.65477163
0.10927016 0.064404562 0.65374869
0.10910294 0.066028878 0.65275991
0.10894892 0.067671366 0.6518119
0.10878991 0.06930659 0.65086591
0.10862876 0.07060238 0.65011328
0.10848149 0.072256304 0.64921135
0.10833959 0.073918834 0.64833808
0.10820069 0.075248525 0.64763767
0.10806422 0.0769201 0.64679182
0.10792703 0.078584671 0.64594591
0.10779008 0.080246195 0.64510995
0.10766719 0.081590205 0.64441293
0.10753179 0.083252788 0.64359063
0.10739473 0.084904641 0.6427632
0.10725802 0.086549923 0.64193785
0.1071196 0.08818268 0.64110368
0.10697816 0.089802533 0.64025837
0.10684033 0.091423988 0.63943553
0.10670245 0.093039908 0.63862127
0.10656453 0.094650432 0.63781625
0.10645097 0.096019715 0.63711339
0.10632125 0.097643152 0.63635957
0.1061982 0.099276207 0.63565522
0.10607456 0.10090762 0.63497847
0.10597733 0.10256308 0.63440055
0.10589364 0.10402262 0.63387096
0.10582046 0.10550994 0.63338566
0.10572734 0.1071858 0.63290274
0.1056698 0.10870727 0.63250315
0.10558121 0.11039451 0.6320852
0.10553385 0.1119393 0.63174641
0.10548989 0.11349343 0.63142926
0.10541177 0.11519883 0.63108379
0.10536908 0.11675281 0.63076699
0.10529124 0.1184602 0.63041294
0.1052436 0.12000204 0.63006526
0.10518803 0.12152231 0.62966877
0.10513043 0.12302544 0.62925023
0.10506856 0.1244982 0.62878603
0.10500355 0.12594272 0.62828737
0.10488667 0.12754866 0.62766826
0.10476045 0.12913476 0.62698364
0.10467923 0.13047744 0.62633687
0.10453647 0.13199107 0.62551123
0.1043862 0.13348258 0.62463814
0.10422768 0.13494 0.62369925
0.1040659 0.13637677 0.62273014
0.10390212 0.13780069 0.62174511
0.10364903 0.13946152 0.62058681
0.10347433 0.14085263 0.61955404
0.10330185 0.14224583 0.6185357
0.1031298 0.14363714 0.61752653
0.10295952 0.14503607 0.61654109
0.10278934 0.14643824 0.61557102
0.10262137 0.14785762 0.61464697
0.10245578 0.14928859 0.61375558
0.10229018 0.15072455 0.61289287
0.10212413 0.15216352 0.61205977
0.10195922 0.15360263 0.61125094
0.10193823 0.15485381 0.61058539
0.10177772 0.1563202 0.60984635
0.10176106 0.15761909 0.60922652
0.10174489 0.15894644 0.60862505
0.10158724 0.16044547 0.60797471
0.10157114 0.1618025 0.60740793
0.10141532 0.16331533 0.60682255
0.10126344 0.16483119 0.60627598
0.1012459 0.16622284 0.60578108
0.10109803 0.16774598 0.60527903
0.10095536 0.16926607 0.60478127
0.10093368 0.17066349 0.60430765
0.10079216 0.17217797 0.60380256
0.10065827 0.17369233 0.60329378
0.10062622 0.17505981 0.60276663
0.10059883 0.17641999 0.60224235
0.10046022 0.17791174 0.60168558
0.10042689 0.17924814 0.60113555
0.1003907 0.18055831 0.60055107
0.10024595 0.18200937 0.59991872
0.10020617 0.18328898 0.59930515
0.10005956 0.18472449 0.59864891
0.099914461 0.18614724 0.59796304
0.099767514 0.18755153 0.59723902
0.099520735 0.18910964 0.59640491
0.099469371 0.19031844 0.59571761
0.099318475 0.19168222 0.59492487
0.099166699 0.19303417 0.59411484
0.099010617 0.19437441 0.59329039
0.098854244 0.19571179 0.59246373
0.098695554 0.19703804 0.5916242
0.098642446 0.19817425 0.59088802
0.098482117 0.19948542 0.59004217
0.098321073 0.20079592 0.58920556
0.098274752 0.2019192 0.58848161
0.098114677 0.20322448 0.58765793
0.097954527 0.20453686 0.58685094
0.097919218 0.20567003 0.58615273
0.097761132 0.20699133 0.58537698
0.097601742 0.20831324 0.58461386
0.097576506 0.20946948 0.58396006
0.097418122 0.2108012 0.58322835
0.097399063 0.2119747 0.58259887
0.097382866 0.21315642 0.5819785
0.09722615 0.21449411 0.5812763
0.097213939 0.21568093 0.58066332
0.097057864 0.21701603 0.57997292
0.097049952 0.21820949 0.57937312
0.096889339 0.2195514 0.57871264
0.096729062 0.22089349 0.57806307
0.096567728 0.22224467 0.57743579
0.096406288 0.22360232 0.57683009
0.096243471 0.22496293 0.5762462
0.096239306 0.22619365 0.57572609
0.096074872 0.22755034 0.57515675
0.096073285 0.22878946 0.57464617
0.13556278 -0.3068009 0.79898506
0.13516091 -0.30478194 0.79884642
0.13499701 -0.30229995 0.79784977
0.13508351 -0.29935357 0.79599565
0.13486494 -0.29689452 0.79497904
0.13464288 -0.29444158 0.79396164
0.13438953 -0.29200083 0.79293388
0.13412778 -0.2895669 0.7919035
0.13407917 -0.2866911 0.79000038
0.13400888 -0.2838307 0.78808993
0.13393058 -0.28098297 0.78617626
0.13384274 -0.27815014 0.78425717
0.13339812 -0.27618235 0.78411186
0.13334452 -0.27336255 0.7822029
0.13315319 -0.27096546 0.78119528
0.13298459 -0.26856902 0.78019482
0.13284914 -0.26617134 0.77920699
0.13275768 -0.26377264 0.77823323
0.13271686 -0.26137179 0.77727848
0.13252069 -0.25936007 0.77721888
0.1324878 -0.25696385 0.77626783
0.13249823 -0.25456843 0.77533293
0.13250206 -0.25217688 0.77439868
0.13234441 -0.25016177 0.77435315
0.13238674 -0.24777003 0.77343547
0.13226117 -0.24574964 0.77340287
0.1321288 -0.24372876 0.77336824
0.13202237 -0.241705 0.77334118
0.13186927 -0.23969173 0.77328575
0.13197656 -0.23729922 0.77241188
0.13184445 -0.2352857 0.77236623
0.131936 -0.23290183 0.77149111
0.13179801 -0.23089311 0.77143621
0.13184792 -0.22852308 0.77054024
0.1318557 -0.22616649 0.76961583
0.13169791 -0.22415994 0.76955295
0.13166679 -0.22181976 0.76860923
0.13147588 -0.21982539 0.76853114
0.13138516 -0.21750194 0.76755214
0.13116008 -0.21552239 0.76745683
0.13103664 -0.21321011 0.76646966
0.13079411 -0.21124034 0.76636344
0.13065137 -0.20894276 0.76536739
0.13041641 -0.20697591 0.76526767
0.13027646 -0.20468599 0.7642746
0.13016459 -0.2023956 0.76329631
0.13009878 -0.20010087 0.76234144
0.12988026 -0.19813989 0.76225108
0.12982047 -0.19585298 0.76130164
0.1296023 -0.19389576 0.76120645
0.12957831 -0.1916071 0.76027733
0.129475 -0.1896228 0.76024032
0.12927823 -0.18766412 0.76014656
0.12917347 -0.18568516 0.76009834
0.12896046 -0.18373901 0.75998604
0.12898183 -0.18144403 0.75909054
0.12878262 -0.17950273 0.75898045
0.12871866 -0.17723586 0.75804192
0.12863638 -0.17497678 0.75709391
0.12854406 -0.17272329 0.75614166
0.12841895 -0.17048419 0.75517195
0.12827435 -0.16825587 0.75419033
0.1280335 -0.16607414 0.75314832
0.12778538 -0.16390246 0.75210154
0.12747714 -0.16176873 0.75101197
0.12733825 -0.15926935 0.74914467
0.12692066 -0.15720534 0.74798042
0.12652707 -0.155139 0.74682528
0.12613061 -0.15307905 0.74565959
0.1257211 -0.15103135 0.74448085
0.12534985 -0.148966 0.74332231
0.12501541 -0.14687952 0.74217254
0.12488646 -0.14440218 0.74033642
0.12468362 -0.14226875 0.73928678
0.12471929 -0.13975967 0.73759282
0.12460838 -0.13759875 0.73663223
0.12452482 -0.13543558 0.73569793
0.12416384 -0.13364306 0.73539972
0.1241359 -0.13146535 0.73451054
0.12413552 -0.12928575 0.73364913
0.12379026 -0.1274806 0.73335439
0.12380718 -0.12530263 0.73251212
0.12351832 -0.12348451 0.73224413
0.12355958 -0.12131275 0.73142219
0.12327512 -0.11949998 0.73115349
0.12330265 -0.11733197 0.73032868
0.12332258 -0.11517883 0.72949904
0.1233433 -0.11302783 0.72866744
0.12333675 -0.11089212 0.72781181
0.12328352 -0.10877955 0.72691309
0.12318878 -0.10668933 0.72597659
0.12308735 -0.10460795 0.72503525
0.12300001 -0.10252793 0.72410524
0.12264445 -0.10075049 0.72378802
0.12257597 -0.098668456 0.7228803
0.12253712 -0.09658388 0.722
0.12221191 -0.094791278 0.72170246
0.12191617 -0.092985451 0.72141176
0.12195227 -0.090883382 0.72060496
0.12172507 -0.089057475 0.72037065
0.12155055 -0.087222472 0.72015333
0.12170234 -0.085095666 0.71949273
0.12155086 -0.08325021 0.71933174
0.12174954 -0.0811221 0.71871161
0.1215997 -0.079283349 0.71854365
0.12145014 -0.077453196 0.71835852
0.1212922 -0.075627267 0.71817333
0.1211232 -0.073817186 0.71796316
0.12125728 -0.071719423 0.71731371
0.12103689 -0.069943167 0.71703881
0.12080612 -0.068196438 0.71672368
0.12056067 -0.066473916 0.71636069
0.12055676 -0.064433388 0.71558321
0.12026493 -0.062757008 0.7151556
0.1201988 -0.060775466 0.71424621
0.12008746 -0.058817733 0.7132898
0.11995392 -0.056863122 0.71233457
0.11999319 -0.054588471 0.71085763
0.11977476 -0.052698471 0.70978838
0.11976243 -0.050439581 0.70825785
0.1195261 -0.048561335 0.70715791
0.11952599 -0.046317786 0.70560098
0.11910457 -0.04478544 0.70499659
0.11892937 -0.042877976 0.70395786
0.11877365 -0.040954452 0.70295417
0.11864967 -0.038988549 0.70206481
0.11853441 -0.0370434 0.70113331
0.11821214 -0.035448402 0.70061201
0.11813723 -0.033495892 0.69971263
0.11808613 -0.031515736 0.69885999
0.11803086 -0.029546075 0.6980266
0.11798031 -0.027571578 0.69722468
0.1179176 -0.025618646 0.69637644
0.11783584 -0.023682868 0.69551152
0.11774404 -0.021756001 0.69464064
0.11762901 -0.019855198 0.69372541
0.11751349 -0.017958177 0.69281977
0.11739851 -0.016064586 0.6919179
0.11728324 -0.014177113 0.69101298
0.11716967 -0.012292856 0.69011366
0.11707017 -0.010400029 0.68924224
0.11698951 -0.008497444 0.68840748
0.11669414 -0.0069392966 0.68785828
0.11663708 -0.005018712 0.68707818
0.11638755 -0.0034406062 0.6865676
0.11635745 -0.0014997693 0.6858539
0.11613955 9.2262228e-05 0.68537384
0.11595023 0.0016770213 0.68486595
0.11592146 0.0036184986 0.68420005
0.11573414 0.0051880144 0.68369079
0.11555498 0.0067709326 0.68319976
0.11550286 0.0086834449 0.68247801
0.11531434 0.010244746 0.68196213
0.11514479 0.011750513 0.68135512
0.11505265 0.01358817 0.68052071
0.11493166 0.015416006 0.67964596
0.11486632 0.017571 0.67853367
0.11470908 0.019359874 0.67760128
0.1146556 0.02145689 0.67637193
0.11448944 0.02320458 0.67538053
0.11432624 0.024957951 0.67441308
0.1142903 0.027038759 0.67316902
0.11400423 0.028440775 0.67244816
0.11399659 0.030552609 0.67128378
0.11386415 0.032322977 0.67038673
0.11374814 0.034108948 0.66953135
0.11364631 0.035919301 0.66872448
0.11341333 0.037366584 0.66811371
0.11320819 0.038824577 0.66752875
0.11311983 0.040640119 0.66675693
0.11302656 0.042448506 0.66598117
0.11292319 0.044240676 0.66518009
0.11271957 0.045660365 0.66455227
0.11260363 0.047424678 0.66371423
0.11246599 0.049149293 0.66280931
0.11232123 0.050860632 0.66188818
0.11211362 0.052207619 0.66115391
0.11201042 0.054235529 0.65998578
0.1117901 0.055544727 0.65920448
0.11166185 0.057518445 0.65795225
0.11148261 0.05914066 0.65691495
0.11133802 0.061095487 0.65565574
0.11112767 0.062373009 0.65484738
0.1109968 0.064353585 0.65365684
0.11083149 0.065984234 0.65267926
0.11066598 0.067615092 0.65171152
0.11050697 0.06925343 0.65076727
0.11032178 0.070550352 0.65001851
0.11017226 0.072199099 0.64910656
0.11002876 0.073857628 0.64822483
0.10987334 0.075184368 0.64751685
0.10973717 0.076851137 0.64666104
0.10960373 0.078525588 0.64583158
0.10947769 0.080211423 0.64504206
0.10933639 0.081557311 0.64434928
0.1092119 0.083526783 0.64339823
0.1090683 0.084870704 0.64269382
0.10893065 0.086507924 0.64185083
0.10879482 0.088145472 0.64102542
0.10865558 0.089768626 0.6401872
0.10852133 0.091394715 0.63937426
0.10838646 0.093012199 0.63856238
0.10826239 0.094638854 0.63778949
0.10812537 0.096005186 0.63707894
0.10800616 0.097638793 0.63634723
0.10788733 0.099264599 0.63562614
0.10777952 0.10090231 0.63496327
0.10767641 0.10254144 0.63433903
0.10757621 0.10399995 0.63380784
0.10748951 0.1054885 0.63332576
0.10741115 0.10716295 0.63283461
0.10734005 0.10884199 0.63239318
0.10727507 0.11037382 0.63202125
0.10720959 0.11191254 0.63166463
0.10715923 0.11362225 0.63132542
0.10709193 0.11516655 0.63098252
0.10703138 0.11687313 0.6306293
0.10697117 0.11841698 0.63029248
0.10690679 0.11995363 0.62993127
0.10683875 0.1214692 0.62952715
0.1067711 0.12297109 0.62911081
0.10669947 0.12444896 0.62866354
0.10662208 0.12589012 0.62816232
0.10651225 0.12749608 0.62754846
0.1063941 0.12908453 0.62687343
0.10629618 0.13042173 0.62621665
0.10615968 0.13195626 0.62543696
0.10606003 0.13321865 0.62469381
0.10585436 0.1349121 0.62364364
0.10569399 0.13636377 0.62270355
0.10553055 0.13779823 0.62173748
0.10529949 0.13946183 0.62059444
0.10512033 0.14085494 0.61956513
0.10494501 0.1422548 0.61855859
0.10477149 0.14365973 0.61757249
0.10460331 0.14507474 0.61661357
0.10443573 0.14649706 0.61567861
0.10416744 0.14817454 0.61462826
0.10410284 0.14936073 0.61388838
0.10393884 0.15080625 0.6130448
0.10377442 0.15225013 0.61222428
0.10361166 0.15369333 0.61142528
0.10357228 0.15495041 0.6107766
0.10341612 0.15641458 0.61004019
0.1033811 0.15771015 0.60941809
0.10334944 0.15903367 0.60881865
0.1033188 0.16037618 0.60822874
0.10316759 0.16188702 0.60760814
0.10302041 0.16339692 0.60701638
0.10299044 0.16477241 0.60648495
0.10284645 0.16628958 0.60594422
0.10281653 0.16768162 0.60545188
0.10257201 0.16932192 0.60490698
0.10254031 0.17071338 0.60442334
0.10240591 0.17221861 0.60389036
