# .PCD v0.7 - Point Cloud Data file format
VERSION 0.7
FIELDS x y z
SIZE 4 4 4
TYPE F F F
COUNT 1 1 1
WIDTH 1519
HEIGHT 1
VIEWPOINT 0 0 0 1 0 0 0
POINTS 1519
DATA ascii
0.058576155 0.30145997 1.0880001
0.061441567 0.30145997 1.0880001
0.064306982 0.30145997 1.0880001
0.067048922 0.30090582 1.0860001
0.069909066 0.30090582 1.0860001
0.072769217 0.30090582 1.0860001
0.075490087 0.30035168 1.0840001
0.077694491 0.29785797 1.075
-0.073555969 0.27355719 0.97800004
-0.067511573 0.28054994 1.003
-0.065452106 0.28306735 1.0120001
-0.06328319 0.28530505 1.0200001
-0.061012726 0.28726301 1.0270001
-0.058818936 0.28978038 1.036
-0.056794308 0.29341665 1.049
-0.054392159 0.2953746 1.056
-0.0518554 0.2967732 1.0610001
-0.049338534 0.29845142 1.067
-0.046790067 0.30012971 1.0730001
-0.04416902 0.30152828 1.0780001
-0.041406624 0.30208766 1.08
-0.038633689 0.30264708 1.082
-0.035784077 0.30264708 1.082
-0.032934465 0.30264708 1.082
-0.030084854 0.30264708 1.082
-0.027184898 0.30208766 1.08
-0.024340555 0.30208766 1.08
-0.021496208 0.30208766 1.08
-0.018651865 0.30208766 1.08
-0.015807521 0.30208766 1.08
-0.012963175 0.30208766 1.08
-0.010137568 0.30264708 1.082
-0.0073014279 0.30320653 1.0840001
-0.004454752 0.30376595 1.0860001
-0.0015946052 0.30376595 1.0860001
0.0012678723 0.30432537 1.0880001
0.0041256887 0.30376595 1.0860001
0.0069987006 0.30432537 1.0880001
0.0098641152 0.30432537 1.0880001
0.012729528 0.30432537 1.0880001
0.015594942 0.30432537 1.0880001
0.018460358 0.30432537 1.0880001
0.021325773 0.30432537 1.0880001
0.024191186 0.30432537 1.0880001
0.027056601 0.30432537 1.0880001
0.029922014 0.30432537 1.0880001
0.032847699 0.30488479 1.09
0.035718381 0.30488479 1.09
0.038589064 0.30488479 1.09
0.041535813 0.30544418 1.092
0.044411764 0.30544418 1.092
0.047287714 0.30544418 1.092
0.05016366 0.30544418 1.092
0.053039607 0.30544418 1.092
0.055915557 0.30544418 1.092
0.058791507 0.30544418 1.092
0.061667453 0.30544418 1.092
0.064543404 0.30544418 1.092
0.067172401 0.30432537 1.0880001
0.070037812 0.30432537 1.0880001
0.072903231 0.30432537 1.0880001
0.075629368 0.30376595 1.0860001
0.07791131 0.30152828 1.0780001
0.084630348 0.28586447 1.0220001
0.09318427 0.29593405 1.0580001
-0.073405549 0.27556822 0.97600007
-0.071633451 0.27867401 0.98700005
-0.06730964 0.28234446 1
-0.065258078 0.28488559 1.0090001
-0.06309706 0.28714433 1.0170001
-0.060953315 0.28968543 1.026
-0.058705386 0.29194418 1.034
-0.056686029 0.29561466 1.0470001
-0.054289144 0.29759106 1.054
-0.0518554 0.29956749 1.0610001
-0.049431011 0.30182624 1.069
-0.04687728 0.30352032 1.075
-0.044250965 0.30493203 1.08
-0.041559987 0.30606142 1.0840001
-0.038776517 0.30662611 1.0860001
-0.035916366 0.30662611 1.0860001
-0.033056222 0.30662611 1.0860001
-0.030196074 0.30662611 1.0860001
-0.027335927 0.30662611 1.0860001
-0.024475781 0.30662611 1.0860001
-0.021615634 0.30662611 1.0860001
-0.018720947 0.30606142 1.0840001
-0.015866067 0.30606142 1.0840001
-0.013011187 0.30606142 1.0840001
-0.010175047 0.30662611 1.0860001
-0.0073283701 0.30719078 1.0880001
-0.004462956 0.30719078 1.0880001
-0.0016004784 0.30775547 1.09
0.0012702029 0.30775547 1.09
0.0041408841 0.30775547 1.09
0.0070244307 0.30832016 1.092
0.0099003799 0.30832016 1.092
0.012776327 0.30832016 1.092
0.015652277 0.30832016 1.092
0.018528225 0.30832016 1.092
0.021364974 0.30775547 1.09
0.024235655 0.30775547 1.09
0.027106337 0.30775547 1.09
0.03003202 0.30832016 1.092
0.032907967 0.30832016 1.092
0.035849459 0.30888486 1.0940001
0.038730677 0.30888486 1.0940001
0.041687962 0.30944955 1.0960001
0.044574447 0.30944955 1.0960001
0.047460929 0.30944955 1.0960001
0.050255541 0.30888486 1.0940001
0.053136755 0.30888486 1.0940001
0.056017973 0.30888486 1.0940001
0.059006862 0.30944955 1.0960001
0.061780401 0.30888486 1.0940001
0.064661622 0.30888486 1.0940001
0.06741935 0.30832016 1.092
0.070295304 0.30832016 1.092
0.073171251 0.30832016 1.092
0.075907923 0.30775547 1.09
0.078055859 0.30493203 1.08
0.084630348 0.28855607 1.0220001
0.088261798 0.29166183 1.033
0.093008108 0.29815575 1.056
0.09814769 0.30549672 1.082
-0.067242339 0.28469315 0.99900007
-0.065128721 0.286973 1.0070001
-0.06309706 0.28982276 1.0170001
-0.060834497 0.29181761 1.024
-0.058648609 0.29438239 1.033
-0.056577746 0.29780215 1.0450001
-0.054289144 0.30036694 1.054
-0.051953148 0.30293176 1.0630001
-0.049523499 0.3052116 1.0710001
-0.047008101 0.30720642 1.0780001
-0.044414863 0.3089163 1.0840001
-0.041713342 0.31005621 1.0880001
-0.038919337 0.31062615 1.09
-0.036048654 0.31062615 1.09
-0.033177972 0.31062615 1.09
-0.030307293 0.31062615 1.09
-0.02743661 0.31062615 1.09
-0.02456593 0.31062615 1.09
-0.021695247 0.31062615 1.09
-0.018790027 0.31005621 1.0880001
-0.015924612 0.31005621 1.0880001
-0.013059199 0.31005621 1.0880001
-0.010212523 0.31062615 1.09
-0.0073418412 0.31062615 1.09
-0.0044793636 0.31119612 1.092
-0.0016063518 0.31176609 1.0940001
0.0012748643 0.31176609 1.0940001
0.0041560805 0.31176609 1.0940001
0.0070372964 0.31176609 1.0940001
0.0099185137 0.31176609 1.0940001
0.012799729 0.31176609 1.0940001
0.015680945 0.31176609 1.0940001
0.01856216 0.31176609 1.0940001
0.021443378 0.31176609 1.0940001
0.024324594 0.31176609 1.0940001
0.02720581 0.31176609 1.0940001
0.03014203 0.31233606 1.0960001
0.033028513 0.31233606 1.0960001
0.035980534 0.312906 1.098
0.038872287 0.312906 1.098
0.041764032 0.312906 1.098
0.044655785 0.312906 1.098
0.047547538 0.312906 1.098
0.050439287 0.312906 1.098
0.053331036 0.312906 1.098
0.056222789 0.312906 1.098
0.059114538 0.312906 1.098
0.062006287 0.312906 1.098
0.064898036 0.312906 1.098
0.067666315 0.31233606 1.0960001
0.070552796 0.31233606 1.0960001
0.073439285 0.31233606 1.0960001
0.076047204 0.31119612 1.092
0.078200407 0.30834633 1.082
0.082900852 0.29466739 1.034
0.084795967 0.29181761 1.024
0.087749153 0.29267254 1.0270001
0.092479661 0.29922706 1.0500001
0.097149894 0.3052116 1.0710001
-0.067107715 0.28674895 0.99700004
-0.064870015 0.28847462 1.003
-0.062910937 0.29163837 1.0140001
-0.060715683 0.29393926 1.0220001
-0.058535062 0.29652774 1.031
-0.056361176 0.29940388 1.041
-0.054186132 0.3025676 1.052
-0.051953148 0.30573136 1.0630001
-0.049523499 0.30803224 1.0710001
-0.047095314 0.31062073 1.08
-0.044578753 0.31292164 1.0880001
-0.041866697 0.31407207 1.092
-0.038990747 0.31407207 1.092
-0.036180943 0.31464732 1.0940001
-0.033299729 0.31464732 1.0940001
-0.030418515 0.31464732 1.0940001
-0.027537297 0.31464732 1.0940001
-0.024656082 0.31464732 1.0940001
-0.021774864 0.31464732 1.0940001
-0.018859107 0.31407207 1.092
-0.015983159 0.31407207 1.092
-0.013107209 0.31407207 1.092
-0.01025 0.31464732 1.0940001
-0.0073687844 0.31464732 1.0940001
-0.0044957721 0.31522253 1.0960001
-0.0016122251 0.31579775 1.098
0.0012795256 0.31579775 1.098
0.004171276 0.31579775 1.098
0.0070501617 0.31522253 1.0960001
0.0099547775 0.31579775 1.098
0.012846528 0.31579775 1.098
0.015738279 0.31579775 1.098
0.01863003 0.31579775 1.098
0.021521781 0.31579775 1.098
0.02441353 0.31579775 1.098
0.027305283 0.31579775 1.098
0.030252036 0.31637296 1.1
0.033149052 0.31637296 1.1
0.036046073 0.31637296 1.1
0.039013896 0.31694818 1.102
0.041916177 0.31694818 1.102
0.044818465 0.31694818 1.102
0.047720749 0.31694818 1.102
0.050623037 0.31694818 1.102
0.053525317 0.31694818 1.102
0.056427605 0.31694818 1.102
0.05932989 0.31694818 1.102
0.062232174 0.31694818 1.102
0.065134458 0.31694818 1.102
0.067913264 0.31637296 1.1
0.070810288 0.31637296 1.1
0.073707305 0.31637296 1.1
0.076465048 0.31579775 1.098
0.078489505 0.31234643 1.0860001
0.083061196 0.29796582 1.036
0.084961578 0.29508969 1.026
0.08766371 0.29508969 1.026
0.091598906 0.29911628 1.0400001
0.096605629 0.30630657 1.0650001
-0.071560875 0.28618199 0.98600006
-0.066905782 0.28850394 0.99400002
-0.064805344 0.29082593 1.0020001
-0.062786847 0.29372838 1.0120001
-0.060715683 0.29663083 1.0220001
-0.058421511 0.29866254 1.029
-0.05630704 0.30185527 1.0400001
-0.054186132 0.30533817 1.052
-0.051953148 0.3085309 1.0630001
-0.049615975 0.31143335 1.0730001
-0.047182526 0.31404555 1.082
-0.044660699 0.31636751 1.09
-0.042020056 0.31810901 1.0960001
-0.039133571 0.31810901 1.0960001
-0.036313232 0.31868947 1.098
-0.033421483 0.31868947 1.098
-0.030529732 0.31868947 1.098
-0.027637981 0.31868947 1.098
-0.024701156 0.31810901 1.0960001
-0.021814672 0.31810901 1.0960001
-0.018928189 0.31810901 1.0960001
-0.016041705 0.31810901 1.0960001
-0.013155223 0.31810901 1.0960001
-0.010287478 0.31868947 1.098
-0.0073957266 0.31868947 1.098
-0.0045121796 0.31926996 1.1
-0.0016151617 0.31926996 1.1
0.0012818562 0.31926996 1.1
0.0041788742 0.31926996 1.1
0.0070758918 0.31926996 1.1
0.0099729104 0.31926996 1.1
0.012869927 0.31926996 1.1
0.015766945 0.31926996 1.1
0.018697897 0.31985044 1.102
0.021560982 0.31926996 1.1
0.024457999 0.31926996 1.1
0.027355019 0.31926996 1.1
0.030307038 0.31985044 1.102
0.033269595 0.32043096 1.1040001
0.036177151 0.32043096 1.1040001
0.039155509 0.32101145 1.1060001
0.042068325 0.32101145 1.1060001
0.044981148 0.32101145 1.1060001
0.047893967 0.32101145 1.1060001
0.050806787 0.32101145 1.1060001
0.053622466 0.32043096 1.1040001
0.056632426 0.32101145 1.1060001
0.059545249 0.32101145 1.1060001
0.062458064 0.32101145 1.1060001
0.065252677 0.32043096 1.1040001
0.068160228 0.32043096 1.1040001
0.070939034 0.31985044 1.102
0.073841318 0.31985044 1.102
0.076604322 0.31926996 1.1
0.078634053 0.31578702 1.0880001
0.080525666 0.31201383 1.075
0.083221555 0.30127478 1.0380001
0.085044391 0.29808205 1.0270001
0.087321945 0.29663083 1.0220001
0.090806216 0.29924303 1.031
0.094610028 0.302726 1.0430001
0.10155737 0.31578702 1.0880001
-0.073856816 0.28760725 0.98200005
-0.071560875 0.28877878 0.98600006
-0.069173917 0.28965741 0.98900002
-0.066905782 0.29112181 0.99400002
-0.064611316 0.29258621 0.99900007
-0.062662758 0.29580787 1.01
-0.060596868 0.29873669 1.0200001
-0.058307964 0.30078682 1.0270001
-0.056198757 0.30400851 1.0380001
-0.054083116 0.30752304 1.0500001
-0.0518554 0.31074473 1.0610001
-0.049708456 0.31484503 1.075
-0.047269743 0.31748095 1.0840001
-0.044742644 0.31982395 1.092
-0.042096734 0.32158124 1.098
-0.039276395 0.32216698 1.1
-0.036379375 0.32216698 1.1
-0.033543233 0.32275274 1.102
-0.03064095 0.32275274 1.102
-0.027738664 0.32275274 1.102
-0.024791306 0.32216698 1.1
-0.021894287 0.32216698 1.1
-0.018997269 0.32216698 1.1
-0.016070979 0.32158124 1.098
-0.013179228 0.32158124 1.098
-0.010306216 0.32216698 1.1
-0.0074091977 0.32216698 1.1
-0.0045203837 0.32275274 1.102
-0.0016180982 0.32275274 1.102
0.0012841868 0.32275274 1.102
0.0041864719 0.32275274 1.102
0.0070887567 0.32275274 1.102
0.0099910423 0.32275274 1.102
0.012893327 0.32275274 1.102
0.015824281 0.32333854 1.1040001
0.018731833 0.32333854 1.1040001
0.021639386 0.32333854 1.1040001
0.024546938 0.32333854 1.1040001
0.027454492 0.32333854 1.1040001
0.030362044 0.32333854 1.1040001
0.033329867 0.32392427 1.1060001
0.036308225 0.32451004 1.108
0.039226312 0.32451004 1.108
0.042144395 0.32451004 1.108
0.045062486 0.32451004 1.108
0.047980573 0.32451004 1.108
0.050898664 0.32451004 1.108
0.053816747 0.32451004 1.108
0.056734834 0.32451004 1.108
0.059652925 0.32451004 1.108
0.062571004 0.32451004 1.108
0.065489098 0.32451004 1.108
0.068283707 0.32392427 1.1060001
0.071196526 0.32392427 1.1060001
0.074109346 0.32392427 1.1060001
0.076882891 0.32333854 1.1040001
0.078923143 0.31982395 1.092
0.084961578 0.30049393 1.026
0.086894736 0.29785803 1.0170001
0.090013534 0.29932243 1.0220001
0.093521506 0.30195832 1.031
0.099970534 0.31367353 1.0710001
-0.071633451 0.2916711 0.98700005
-0.066771165 0.29314864 0.99200004
-0.064481959 0.29462621 0.99700004
-0.062476639 0.29758134 1.0070001
-0.060537454 0.30112749 1.0190001
-0.058307964 0.30349159 1.0270001
-0.056198757 0.30674225 1.0380001
-0.054083116 0.3102884 1.0500001
-0.0518554 0.31353906 1.0610001
-0.049708456 0.31767622 1.075
-0.047356956 0.32092685 1.0860001
-0.044906538 0.32388198 1.0960001
-0.042173412 0.325064 1.1
-0.039419219 0.32624608 1.1040001
-0.036511667 0.32624608 1.1040001
-0.03366499 0.32683709 1.1060001
-0.030752171 0.32683709 1.1060001
-0.02778901 0.32624608 1.1040001
-0.024881458 0.32624608 1.1040001
-0.021973904 0.32624608 1.1040001
-0.019066352 0.32624608 1.1040001
-0.016129524 0.32565504 1.102
-0.013203233 0.325064 1.1
-0.010324954 0.32565504 1.102
-0.0074226689 0.32565504 1.102
-0.0045285877 0.32624608 1.1040001
-0.001621035 0.32624608 1.1040001
0.0012865176 0.32624608 1.1040001
0.0041940701 0.32624608 1.1040001
0.0071016229 0.32624608 1.1040001
0.010009176 0.32624608 1.1040001
0.012916728 0.32624608 1.1040001
0.015852947 0.32683709 1.1060001
0.018765768 0.32683709 1.1060001
0.021678587 0.32683709 1.1060001
0.024591407 0.32683709 1.1060001
0.027553964 0.32742813 1.108
0.030472049 0.32742813 1.108
0.033450406 0.32801914 1.11
0.036439303 0.32861018 1.1120001
0.039367925 0.32861018 1.1120001
0.042296547 0.32861018 1.1120001
0.04522517 0.32861018 1.1120001
0.048153792 0.32861018 1.1120001
0.051082414 0.32861018 1.1120001
0.054011032 0.32861018 1.1120001
0.056939658 0.32861018 1.1120001
0.05986828 0.32861018 1.1120001
0.062796898 0.32861018 1.1120001
0.065607302 0.32801914 1.11
0.068530664 0.32801914 1.11
0.071454018 0.32801914 1.11
0.074243359 0.32742813 1.108
0.077022173 0.32683709 1.1060001
0.0790677 0.32329097 1.0940001
0.080675483 0.31826723 1.077
0.085044391 0.30349159 1.0270001
0.086894736 0.30053648 1.0170001
0.089397006 0.29994544 1.0150001
0.093521506 0.30467364 1.031
0.098570377 0.31206146 1.056
-0.074157655 0.29397234 0.98600006
-0.071560875 0.29397234 0.98600006
-0.069034033 0.29427049 0.98700005
-0.064352609 0.29665565 0.99500006
-0.062476639 0.30023342 1.0070001
-0.060418639 0.30321488 1.0170001
-0.058251187 0.30589819 1.026
-0.056198757 0.30947596 1.0380001
-0.054031607 0.31275555 1.049
-0.051953148 0.31692961 1.0630001
-0.049800936 0.32110363 1.077
-0.047531381 0.32497954 1.09
-0.044988483 0.32736471 1.098
-0.042326774 0.32915363 1.1040001
-0.039490629 0.32974991 1.1060001
-0.036643952 0.3303462 1.108
-0.033725865 0.3303462 1.108
-0.03080778 0.3303462 1.108
-0.027889693 0.3303462 1.108
-0.024971606 0.3303462 1.108
-0.022053517 0.3303462 1.108
-0.019100891 0.32974991 1.1060001
-0.016158799 0.32915363 1.1040001
-0.013227239 0.32855728 1.102
-0.010343693 0.32915363 1.1040001
-0.0074361404 0.32915363 1.1040001
-0.0045285877 0.32915363 1.1040001
-0.001621035 0.32915363 1.1040001
0.0012865176 0.32915363 1.1040001
0.0041940701 0.32915363 1.1040001
0.0071144877 0.32974991 1.1060001
0.010027308 0.32974991 1.1060001
0.012963527 0.3303462 1.108
0.015881615 0.3303462 1.108
0.018799702 0.3303462 1.108
0.021756992 0.33094248 1.11
0.024680344 0.33094248 1.11
0.027603701 0.33094248 1.11
0.030582059 0.3315388 1.1120001
0.033570949 0.33213508 1.1140001
0.036504842 0.33213508 1.1140001
0.039438732 0.33213508 1.1140001
0.042372618 0.33213508 1.1140001
0.045306507 0.33213508 1.1140001
0.048240397 0.33213508 1.1140001
0.051174287 0.33213508 1.1140001
0.054108176 0.33213508 1.1140001
0.057144474 0.33273137 1.1160001
0.060083631 0.33273137 1.1160001
0.063022785 0.33273137 1.1160001
0.065843731 0.33213508 1.1140001
0.068654142 0.3315388 1.1120001
0.071582764 0.3315388 1.1120001
0.074511394 0.3315388 1.1120001
0.077300727 0.33094248 1.11
0.07935679 0.32736471 1.098
0.080900207 0.32199809 1.08
0.085044391 0.30619633 1.0270001
0.086723849 0.30261859 1.0150001
0.088868551 0.30082971 1.0090001
0.092523709 0.30410933 1.0200001
0.097356923 0.3109667 1.0430001
-0.074834555 0.29927614 0.99500006
-0.071415715 0.29596755 0.98400003
-0.068824202 0.29596755 0.98400003
-0.066434622 0.2968699 0.98700005
-0.064158581 0.29837379 0.99200004
-0.062352549 0.30228391 1.005
-0.060418639 0.3058933 1.0170001
-0.058251187 0.30860031 1.026
-0.05609047 0.31160811 1.036
-0.054031607 0.31551826 1.049
-0.051953148 0.31972921 1.0630001
-0.049847178 0.32424089 1.0780001
-0.047618594 0.32845178 1.092
-0.045070428 0.33085805 1.1
-0.042403452 0.33266273 1.1060001
-0.039633453 0.33386582 1.11
-0.036710098 0.33386582 1.11
-0.033847623 0.33446741 1.1120001
-0.030919002 0.33446741 1.1120001
-0.027990378 0.33446741 1.1120001
-0.02501668 0.33386582 1.11
-0.022093326 0.33386582 1.11
-0.019135432 0.33326429 1.108
-0.016188072 0.33266273 1.1060001
-0.013251246 0.33206117 1.1040001
-0.010343693 0.33206117 1.1040001
-0.0074361404 0.33206117 1.1040001
-0.0045367917 0.33266273 1.1060001
-0.0016239717 0.33266273 1.1060001
0.0012888481 0.33266273 1.1060001
0.0042016678 0.33266273 1.1060001
0.007127353 0.33326429 1.108
0.010045441 0.33326429 1.108
0.012986926 0.33386582 1.11
0.015910281 0.33386582 1.11
0.018867571 0.33446741 1.1120001
0.021796195 0.33446741 1.1120001
0.024724815 0.33446741 1.1120001
0.027653439 0.33446741 1.1120001
0.030637063 0.33506897 1.1140001
0.03363122 0.33567053 1.1160001
0.036570378 0.33567053 1.1160001
0.039509535 0.33567053 1.1160001
0.042448688 0.33567053 1.1160001
0.045387845 0.33567053 1.1160001
0.048327006 0.33567053 1.1160001
0.051358037 0.33627209 1.118
0.054302458 0.33627209 1.118
0.057246882 0.33627209 1.118
0.060298983 0.33687362 1.12
0.063248672 0.33687362 1.12
0.066080153 0.33627209 1.118
0.068901099 0.33567053 1.1160001
0.071840256 0.33567053 1.1160001
0.0746454 0.33506897 1.1140001
0.07757929 0.33506897 1.1140001
0.07964588 0.33145958 1.102
0.081050016 0.32544398 1.082
0.085375622 0.31010422 1.031
0.086894736 0.3058933 1.0170001
0.088692397 0.3028855 1.0070001
0.092251576 0.3058933 1.0170001
0.097916976 0.31551826 1.049
-0.074984975 0.30250347 0.99700004
-0.071415715 0.29855907 0.98400003
-0.066434622 0.29946932 0.98700005
-0.064158581 0.30098638 0.99200004
-0.062352549 0.30493075 1.005
-0.060418639 0.30857176 1.0170001
-0.058251187 0.31130245 1.026
-0.05609047 0.3143366 1.036
-0.054031607 0.31828097 1.049
-0.051953148 0.32252878 1.0630001
-0.049847178 0.32707998 1.0780001
-0.047618594 0.33132774 1.092
-0.045234323 0.33496875 1.1040001
-0.04248013 0.33618239 1.108
-0.039704867 0.33739606 1.1120001
-0.036842387 0.33800286 1.1140001
-0.033908498 0.33800286 1.1140001
-0.030974612 0.33800286 1.1140001
-0.02804072 0.33800286 1.1140001
-0.025061758 0.33739606 1.1120001
-0.022133134 0.33739606 1.1120001
-0.019169971 0.33678919 1.11
-0.016217345 0.33618239 1.108
-0.013275252 0.33557555 1.1060001
-0.010362431 0.33557555 1.1060001
-0.0074496116 0.33557555 1.1060001
-0.0045449957 0.33618239 1.108
-0.0016269083 0.33618239 1.108
0.0012911787 0.33618239 1.108
0.004209266 0.33618239 1.108
0.0071402178 0.33678919 1.11
0.010063573 0.33678919 1.11
0.013010328 0.33739606 1.1120001
0.015938949 0.33739606 1.1120001
0.018901505 0.33800286 1.1140001
0.021835396 0.33800286 1.1140001
0.024769284 0.33800286 1.1140001
0.02775291 0.3386097 1.1160001
0.030692065 0.3386097 1.1160001
0.033691492 0.3392165 1.118
0.036635917 0.3392165 1.118
0.039580341 0.3392165 1.118
0.042524762 0.3392165 1.118
0.045469187 0.3392165 1.118
0.048413612 0.3392165 1.118
0.05144991 0.33982334 1.12
0.054399598 0.33982334 1.12
0.057349291 0.33982334 1.12
0.060406663 0.3404302 1.1220001
0.063361615 0.3404302 1.1220001
0.066198364 0.33982334 1.12
0.069148056 0.33982334 1.12
0.071969002 0.3392165 1.118
0.074913427 0.3392165 1.118
0.077718571 0.3386097 1.1160001
0.079934984 0.33557555 1.1060001
0.085375622 0.31281951 1.031
0.086894736 0.30857176 1.0170001
0.088868551 0.30614445 1.0090001
0.091979444 0.3076615 1.0140001
0.096050113 0.31221271 1.029
-0.066569239 0.30268085 0.98900002
-0.064287931 0.30421108 0.99400002
-0.062476639 0.30818972 1.0070001
-0.060418639 0.31125018 1.0170001
-0.058307964 0.31431064 1.0270001
-0.05609047 0.31706506 1.036
-0.054083116 0.32134974 1.0500001
-0.052050896 0.32594046 1.0650001
-0.049847178 0.32991907 1.0780001
-0.047705811 0.33481583 1.0940001
-0.045234323 0.33787629 1.1040001
-0.042556807 0.33971256 1.11
-0.039776277 0.34093678 1.1140001
-0.03690853 0.34154886 1.1160001
-0.033969376 0.34154886 1.1160001
-0.031030221 0.34154886 1.1160001
-0.028091062 0.34154886 1.1160001
-0.025151907 0.34154886 1.1160001
-0.022172943 0.34093678 1.1140001
-0.019239053 0.34093678 1.1140001
-0.016246617 0.33971256 1.11
-0.013299257 0.33910048 1.108
-0.01038117 0.33910048 1.108
-0.0074630827 0.33910048 1.108
-0.0045531993 0.33971256 1.11
-0.0016298449 0.33971256 1.11
0.0012935094 0.33971256 1.11
0.0042168638 0.33971256 1.11
0.0071402178 0.33971256 1.11
0.010081707 0.3403247 1.1120001
0.013010328 0.3403247 1.1120001
0.015967617 0.34093678 1.1140001
0.01893544 0.34154886 1.1160001
0.021874597 0.34154886 1.1160001
0.024858221 0.34216094 1.118
0.027802646 0.34216094 1.118
0.030802071 0.34277302 1.12
0.03375176 0.34277302 1.12
0.036701452 0.34277302 1.12
0.039721955 0.34338516 1.1220001
0.042600833 0.34277302 1.12
0.045631871 0.34338516 1.1220001
0.048500217 0.34277302 1.12
0.05154179 0.34338516 1.1220001
0.054496743 0.34338516 1.1220001
0.057451703 0.34338516 1.1220001
0.060568172 0.34430328 1.125
0.063531026 0.34430328 1.125
0.066316575 0.34338516 1.1220001
0.069271535 0.34338516 1.1220001
0.072097749 0.34277302 1.12
0.075047441 0.34277302 1.12
0.077857852 0.34216094 1.118
0.080079526 0.33910048 1.108
0.085789666 0.31706506 1.036
0.087321945 0.31278041 1.0220001
0.088868551 0.3088018 1.0090001
0.091525897 0.3088018 1.0090001
0.094183259 0.3088018 1.0090001
-0.064352609 0.30713761 0.99500006
-0.062600724 0.31145912 1.0090001
-0.060537454 0.31454593 1.0190001
-0.058421511 0.31763273 1.029
-0.056198757 0.32041088 1.0380001
-0.054083116 0.32411504 1.0500001
-0.052050896 0.32874528 1.0650001
-0.049939658 0.33337548 1.08
-0.047705811 0.33769703 1.0940001
-0.045316268 0.34140119 1.1060001
-0.042556807 0.3426359 1.11
-0.039847687 0.34448799 1.1160001
-0.036974676 0.34510535 1.118
-0.034030251 0.34510535 1.118
-0.031141438 0.34572271 1.12
-0.028191745 0.34572271 1.12
-0.025196981 0.34510535 1.118
-0.022252556 0.34510535 1.118
-0.019273594 0.34448799 1.1160001
-0.016305165 0.34387064 1.1140001
-0.013323263 0.3426359 1.11
-0.010399909 0.3426359 1.11
-0.0074765538 0.3426359 1.11
-0.0045614038 0.34325328 1.1120001
-0.0016327817 0.34325328 1.1120001
0.0012958401 0.34325328 1.1120001
0.004224462 0.34325328 1.1120001
0.007153084 0.34325328 1.1120001
0.010099838 0.34387064 1.1140001
0.013033727 0.34387064 1.1140001
0.015996283 0.34448799 1.1160001
0.018969374 0.34510535 1.118
0.021913799 0.34510535 1.118
0.02490269 0.34572271 1.12
0.027852383 0.34572271 1.12
0.030857077 0.34634009 1.1220001
0.033812035 0.34634009 1.1220001
0.036865298 0.34726611 1.125
0.039828159 0.34726611 1.125
0.042791016 0.34726611 1.125
0.045753874 0.34726611 1.125
0.048716735 0.34726611 1.125
0.051679596 0.34726611 1.125
0.054642454 0.34726611 1.125
0.057605311 0.34726611 1.125
0.060675856 0.34788349 1.1270001
0.063643977 0.34788349 1.1270001
0.06661211 0.34788349 1.1270001
0.069456749 0.34726611 1.125
0.072226495 0.34634009 1.1220001
0.075181454 0.34634009 1.1220001
0.077997126 0.34572271 1.12
0.080224074 0.3426359 1.11
0.086120903 0.32102823 1.0400001
0.087321945 0.31547198 1.0220001
0.088868551 0.31145912 1.0090001
0.091525897 0.31145912 1.0090001
0.094183259 0.31145912 1.0090001
-0.064481959 0.3103807 0.99700004
-0.062662758 0.31442779 1.01
-0.060596868 0.31754097 1.0200001
-0.058421511 0.32034278 1.029
-0.056198757 0.32314464 1.0380001
-0.054083116 0.3268804 1.0500001
-0.052050896 0.33155012 1.0650001
-0.049939658 0.33621982 1.08
-0.047793023 0.34120086 1.0960001
-0.045316268 0.34431401 1.1060001
-0.042633489 0.34618193 1.1120001
-0.039847687 0.34742716 1.1160001
-0.037040818 0.34867239 1.12
-0.034152009 0.34929505 1.1220001
-0.031197051 0.34929505 1.1220001
-0.028242091 0.34929505 1.1220001
-0.025242057 0.34867239 1.12
-0.022292364 0.34867239 1.12
-0.019308135 0.34804979 1.118
-0.016334437 0.34742716 1.1160001
-0.013371276 0.34680453 1.1140001
-0.010418648 0.34618193 1.1120001
-0.0074900258 0.34618193 1.1120001
-0.0045696078 0.34680453 1.1140001
-0.0016357184 0.34680453 1.1140001
0.0012981708 0.34680453 1.1140001
0.0042320597 0.34680453 1.1140001
0.0071659489 0.34680453 1.1140001
0.010117971 0.34742716 1.1160001
0.013080526 0.34804979 1.118
0.016024949 0.34804979 1.118
0.019003307 0.34867239 1.12
0.021992203 0.34929505 1.1220001
0.024947161 0.34929505 1.1220001
0.027976722 0.35022897 1.125
0.030939581 0.35022897 1.125
0.03390244 0.35022897 1.125
0.036865298 0.35022897 1.125
0.039828159 0.35022897 1.125
0.042791016 0.35022897 1.125
0.045753874 0.35022897 1.125
0.048716735 0.35022897 1.125
0.051679596 0.35022897 1.125
0.054739598 0.35085163 1.1270001
0.057810135 0.35147426 1.1290001
0.060783532 0.35147426 1.1290001
0.06375692 0.35147426 1.1290001
0.06661211 0.35085163 1.1270001
0.069580235 0.35085163 1.1270001
0.072419614 0.35022897 1.125
0.075181454 0.34929505 1.1220001
0.078136414 0.34929505 1.1220001
0.080224074 0.34555927 1.11
0.08179909 0.3399556 1.092
0.086203709 0.32407856 1.041
0.087492824 0.3187862 1.024
0.088956617 0.31442779 1.01
0.091616601 0.31442779 1.01
0.094276592 0.31442779 1.01
-0.064611316 0.31363437 0.99900007
-0.062786847 0.3177157 1.0120001
-0.060715683 0.3208552 1.0220001
-0.058535062 0.3236807 1.031
-0.05630704 0.32650626 1.0400001
-0.054186132 0.33027363 1.052
-0.052050896 0.33435497 1.0650001
-0.049939658 0.33906418 1.08
-0.047793023 0.34408736 1.0960001
-0.045398213 0.34785473 1.108
-0.042710166 0.34973845 1.1140001
-0.039919101 0.3509942 1.118
-0.037106965 0.35225004 1.1220001
-0.034243319 0.35319185 1.125
-0.031280462 0.35319185 1.125
-0.028317602 0.35319185 1.125
-0.025354743 0.35319185 1.125
-0.022332173 0.35225004 1.1220001
-0.019342674 0.3516221 1.12
-0.016392983 0.3516221 1.12
-0.013419286 0.3509942 1.118
-0.010456124 0.35036632 1.1160001
-0.0075034969 0.34973845 1.1140001
-0.0045778113 0.35036632 1.1160001
-0.001638655 0.35036632 1.1160001
0.0013005014 0.35036632 1.1160001
0.0042396579 0.35036632 1.1160001
0.0071788142 0.35036632 1.1160001
0.010136103 0.3509942 1.118
0.013103926 0.3516221 1.12
0.016082285 0.35225004 1.1220001
0.019037243 0.35225004 1.1220001
0.021992203 0.35225004 1.1220001
0.025013862 0.35319185 1.125
0.028026462 0.35381976 1.1270001
0.030994587 0.35381976 1.1270001
0.034022983 0.35444766 1.1290001
0.03693084 0.35381976 1.1270001
0.039898969 0.35381976 1.1270001
0.042867091 0.35381976 1.1270001
0.045835219 0.35381976 1.1270001
0.048803348 0.35381976 1.1270001
0.05186335 0.35444766 1.1290001
0.054836739 0.35444766 1.1290001
0.057810135 0.35444766 1.1290001
0.060891207 0.35507554 1.131
0.063869864 0.35507554 1.131
0.066848524 0.35507554 1.131
0.069703713 0.35444766 1.1290001
0.07254836 0.35381976 1.1270001
0.075382471 0.35319185 1.125
0.078345329 0.35319185 1.125
0.080224074 0.34848261 1.11
0.08179909 0.34283155 1.092
0.086369328 0.3274481 1.0430001
0.08766371 0.32211098 1.026
0.089132778 0.3177157 1.0120001
0.09179803 0.3177157 1.0120001
0.094463289 0.3177157 1.0120001
-0.064805344 0.31721511 1.0020001
-0.062910937 0.32101411 1.0140001
-0.060834497 0.32417992 1.024
-0.058648609 0.32702914 1.033
-0.05630704 0.32924524 1.0400001
-0.054186132 0.3330442 1.052
-0.052050896 0.33715978 1.0650001
-0.049939658 0.34190851 1.08
-0.047705811 0.34634066 1.0940001
-0.045398213 0.3507728 1.108
-0.042710166 0.35267231 1.1140001
-0.039919101 0.35393861 1.118
-0.037106965 0.35520497 1.1220001
-0.034243319 0.35615468 1.125
-0.031336073 0.35678786 1.1270001
-0.028367946 0.35678786 1.1270001
-0.025399821 0.35678786 1.1270001
-0.022431694 0.35678786 1.1270001
-0.019429024 0.35615468 1.125
-0.016422257 0.35520497 1.1220001
-0.013443292 0.35457176 1.12
-0.010474863 0.35393861 1.118
-0.0075304392 0.35393861 1.118
-0.0045860154 0.35393861 1.118
-0.0016415915 0.35393861 1.118
0.001302832 0.35393861 1.118
0.0042472556 0.35393861 1.118
0.0072045443 0.35457176 1.12
0.010172369 0.35520497 1.1220001
0.013127327 0.35520497 1.1220001
0.016125284 0.35615468 1.125
0.019122079 0.35678786 1.1270001
0.022090208 0.35678786 1.1270001
0.025102802 0.35742104 1.1290001
0.028076196 0.35742104 1.1290001
0.031049591 0.35742104 1.1290001
0.034022983 0.35742104 1.1290001
0.036996379 0.35742104 1.1290001
0.039969772 0.35742104 1.1290001
0.042943165 0.35742104 1.1290001
0.045916557 0.35742104 1.1290001
0.048889954 0.35742104 1.1290001
0.05186335 0.35742104 1.1290001
0.05493388 0.35805419 1.131
0.057912543 0.35805419 1.131
0.060998879 0.35868734 1.133
0.063982807 0.35868734 1.133
0.066848524 0.35805419 1.131
0.069827192 0.35805419 1.131
0.07254836 0.35678786 1.1270001
0.075516492 0.35678786 1.1270001
0.078345329 0.35615468 1.125
0.080368631 0.35203916 1.1120001
0.08209873 0.34697384 1.0960001
0.086866178 0.33209446 1.049
0.088090919 0.32639599 1.031
0.089308925 0.32101411 1.0140001
0.094649971 0.32101411 1.0140001
-0.06730964 0.3192156 1
-0.064999364 0.32081166 1.005
-0.062972978 0.32400388 1.0150001
-0.060953315 0.32751521 1.026
-0.058705386 0.33006895 1.034
-0.056469467 0.33294189 1.0430001
-0.054186132 0.33581483 1.052
-0.052050896 0.33996463 1.0650001
-0.049939658 0.34475285 1.08
-0.047705811 0.34922189 1.0940001
-0.045398213 0.35369089 1.108
-0.042710166 0.3556062 1.1140001
-0.039990511 0.35752147 1.12
-0.03720618 0.35911754 1.125
-0.034304202 0.35975599 1.1270001
-0.031391684 0.36039442 1.1290001
-0.028418288 0.36039442 1.1290001
-0.025444895 0.36039442 1.1290001
-0.022471501 0.36039442 1.1290001
-0.019498108 0.36039442 1.1290001
-0.01649544 0.35975599 1.1270001
-0.013503307 0.35911754 1.125
-0.010512341 0.35815993 1.1220001
-0.0075573819 0.35815993 1.1220001
-0.0046024234 0.35815993 1.1220001
-0.0016518699 0.35911754 1.125
0.0013109893 0.35911754 1.125
0.0042738481 0.35911754 1.125
0.0072367075 0.35911754 1.125
0.010199567 0.35911754 1.125
0.013185826 0.35975599 1.1270001
0.01618262 0.36039442 1.1290001
0.019156015 0.36039442 1.1290001
0.022129409 0.36039442 1.1290001
0.02514727 0.36103284 1.131
0.028125932 0.36103284 1.131
0.031159597 0.36167127 1.133
0.034143522 0.36167127 1.133
0.037061915 0.36103284 1.131
0.040040579 0.36103284 1.131
0.043019235 0.36103284 1.131
0.045997899 0.36103284 1.131
0.048976559 0.36103284 1.131
0.051955223 0.36103284 1.131
0.05503102 0.36167127 1.133
0.058014952 0.36167127 1.133
0.061106563 0.36230972 1.1350001
0.064095758 0.36230972 1.1350001
0.066966735 0.36167127 1.133
0.069950663 0.36167127 1.133
0.072805852 0.36103284 1.131
0.075650498 0.36039442 1.1290001
0.078623898 0.36039442 1.1290001
0.080657721 0.35624462 1.1160001
0.082548171 0.35177559 1.102
0.087280221 0.33645326 1.054
0.088689022 0.33134583 1.0380001
-0.065128721 0.32410222 1.0070001
-0.06309706 0.32732072 1.0170001
-0.060953315 0.33021733 1.026
-0.058818936 0.33343583 1.036
-0.056577746 0.3363325 1.0450001
-0.054392159 0.33987281 1.056
-0.05214864 0.34341317 1.067
-0.049939658 0.34759721 1.08
-0.047705811 0.35210311 1.0940001
-0.045398213 0.35660899 1.108
-0.042786848 0.35918379 1.1160001
-0.039990511 0.36047116 1.12
-0.037272327 0.36272416 1.1270001
-0.034365077 0.36336783 1.1290001
-0.031447291 0.36401153 1.131
-0.028518971 0.36465523 1.133
-0.025535045 0.36465523 1.133
-0.022551116 0.36465523 1.133
-0.019567188 0.36465523 1.133
-0.016553987 0.36401153 1.131
-0.013575325 0.36401153 1.131
-0.010577925 0.36336783 1.1290001
-0.0076045315 0.36336783 1.1290001
-0.0046311375 0.36336783 1.1290001
-0.0016577432 0.36336783 1.1290001
0.0013156506 0.36336783 1.1290001
0.0042890445 0.36336783 1.1290001
0.0072624381 0.36336783 1.1290001
0.010253965 0.36401153 1.131
0.013256025 0.36465523 1.133
0.016239954 0.36465523 1.133
0.019223882 0.36465523 1.133
0.022207811 0.36465523 1.133
0.02523621 0.36529893 1.1350001
0.028225407 0.36529893 1.1350001
0.031214602 0.36529893 1.1350001
0.034203798 0.36529893 1.1350001
0.037192993 0.36529893 1.1350001
0.040182192 0.36529893 1.1350001
0.043095309 0.36465523 1.133
0.046160582 0.36529893 1.1350001
0.049149778 0.36529893 1.1350001
0.052138977 0.36529893 1.1350001
0.055128168 0.36529893 1.1350001
0.058117367 0.36529893 1.1350001
0.061214238 0.36594263 1.1370001
0.064208701 0.36594263 1.1370001
0.067203164 0.36594263 1.1370001
0.070074148 0.36529893 1.1350001
0.072934598 0.36465523 1.133
0.075784512 0.36401153 1.131
0.078763172 0.36401153 1.131
0.080802269 0.35982749 1.118
0.082847804 0.35596529 1.1060001
0.086588897 0.34759721 1.08
0.088191114 0.34276947 1.0650001
0.089628875 0.33761987 1.049
0.090806216 0.3318266 1.031
0.095770083 0.33021733 1.026
-0.063221142 0.33064812 1.0190001
-0.061131541 0.33389294 1.029
-0.058932491 0.3368133 1.0380001
-0.056686029 0.33973363 1.0470001
-0.054392159 0.34265396 1.056
-0.052246388 0.34687224 1.069
-0.049939658 0.35044158 1.08
-0.047618594 0.35433534 1.092
-0.045316268 0.35887814 1.1060001
-0.042786848 0.36212295 1.1160001
-0.039990511 0.36342087 1.12
-0.037272327 0.36569229 1.1270001
-0.034425952 0.36699018 1.131
-0.031502903 0.36763915 1.133
-0.028569316 0.36828816 1.1350001
-0.025625195 0.3689371 1.1370001
-0.022630733 0.3689371 1.1370001
-0.01963627 0.3689371 1.1370001
-0.016641807 0.3689371 1.1370001
-0.013647343 0.3689371 1.1370001
-0.010634141 0.36828816 1.1350001
-0.0076449453 0.36828816 1.1350001
-0.0046557495 0.36828816 1.1350001
-0.0016665533 0.36828816 1.1350001
0.0013226427 0.36828816 1.1350001
0.0043118387 0.36828816 1.1350001
0.0073010344 0.36828816 1.1350001
0.010290231 0.36828816 1.1350001
0.013279426 0.36828816 1.1350001
0.016297288 0.3689371 1.1370001
0.019291751 0.3689371 1.1370001
0.022286216 0.3689371 1.1370001
0.025280679 0.3689371 1.1370001
0.028324878 0.36958605 1.1390001
0.031324606 0.36958605 1.1390001
0.034264069 0.3689371 1.1370001
0.037258532 0.3689371 1.1370001
0.040252995 0.3689371 1.1370001
0.043247458 0.3689371 1.1370001
0.04624192 0.3689371 1.1370001
0.049236383 0.3689371 1.1370001
0.05223085 0.3689371 1.1370001
0.05532245 0.36958605 1.1390001
0.05832218 0.36958605 1.1390001
0.061321914 0.36958605 1.1390001
0.064434581 0.37023503 1.141
0.067321375 0.36958605 1.1390001
0.070321105 0.36958605 1.1390001
0.07319209 0.3689371 1.1370001
0.076052547 0.36828816 1.1350001
0.079041742 0.36828816 1.1350001
0.081308186 0.36504328 1.125
0.083297253 0.36082503 1.1120001
0.088853583 0.34817019 1.0730001
0.090397865 0.34330297 1.0580001
0.091686971 0.33778673 1.041
0.096516833 0.33551535 1.034
0.099911869 0.33778673 1.041
-0.063221142 0.33333179 1.0190001
-0.061250359 0.33725718 1.031
-0.059046041 0.34020123 1.0400001
-0.056794308 0.34314528 1.049
-0.054495178 0.34608933 1.0580001
-0.05214864 0.34903336 1.067
-0.049939658 0.35328588 1.08
-0.047618594 0.35721126 1.092
-0.045234323 0.3611367 1.1040001
-0.042786848 0.36506209 1.1160001
-0.040061925 0.36702481 1.1220001
-0.037338469 0.36931461 1.1290001
-0.03448683 0.37062305 1.133
-0.031614121 0.37193155 1.1370001
-0.02867 0.37258577 1.1390001
-0.025715346 0.37323999 1.141
-0.022770058 0.37422135 1.1440001
-0.019757161 0.37422135 1.1440001
-0.016744262 0.37422135 1.1440001
-0.013695355 0.37323999 1.141
-0.010690357 0.37323999 1.141
-0.0076718875 0.37258577 1.1390001
-0.0046721571 0.37258577 1.1390001
-0.0016724266 0.37258577 1.1390001
0.0013273038 0.37258577 1.1390001
0.0043270341 0.37258577 1.1390001
0.0073267645 0.37258577 1.1390001
0.010326495 0.37258577 1.1390001
0.013326225 0.37258577 1.1390001
0.016354622 0.37323999 1.141
0.01935962 0.37323999 1.141
0.022364618 0.37323999 1.141
0.025369616 0.37323999 1.141
0.028374614 0.37323999 1.141
0.03137961 0.37323999 1.141
0.034384608 0.37323999 1.141
0.037389606 0.37323999 1.141
0.040323801 0.37258577 1.1390001
0.043323528 0.37258577 1.1390001
0.0464046 0.37323999 1.141
0.049409598 0.37323999 1.141
0.052414596 0.37323999 1.141
0.055565305 0.37422135 1.1440001
0.058578204 0.37422135 1.1440001
0.061591104 0.37422135 1.1440001
0.064603999 0.37422135 1.1440001
0.067616902 0.37422135 1.1440001
0.070629798 0.37422135 1.1440001
0.073449582 0.37323999 1.141
0.076320566 0.37258577 1.1390001
0.079181023 0.37193155 1.1370001
0.081597283 0.36931461 1.1290001
0.083746694 0.36571631 1.118
0.089433245 0.35328588 1.08
0.090825073 0.34772491 1.0630001
0.092479661 0.34347239 1.0500001
0.10461473 0.35655704 1.09
-0.063407272 0.33700475 1.0220001
-0.061369173 0.34063196 1.033
-0.059102811 0.34326997 1.041
-0.056848451 0.34623775 1.0500001
-0.054598194 0.34953526 1.0600001
-0.052246388 0.35250297 1.069
-0.049939658 0.35613024 1.08
-0.047618594 0.36008725 1.092
-0.045234323 0.36404425 1.1040001
-0.042786848 0.36800125 1.1160001
-0.040061925 0.36997977 1.1220001
-0.037404612 0.37294751 1.131
-0.034547709 0.37426654 1.1350001
-0.031669732 0.3755855 1.1390001
-0.028720342 0.37624499 1.141
-0.025828034 0.37789375 1.146
-0.022849673 0.37855324 1.148
-0.019826241 0.37855324 1.148
-0.016802808 0.37855324 1.148
-0.013779375 0.37855324 1.148
-0.010737203 0.37789375 1.146
-0.0077190367 0.37789375 1.146
-0.0046926672 0.37723425 1.1440001
-0.0016797682 0.37723425 1.1440001
0.0013331304 0.37723425 1.1440001
0.0043460289 0.37723425 1.1440001
0.0073589277 0.37723425 1.1440001
0.010371827 0.37723425 1.1440001
0.013384725 0.37723425 1.1440001
0.016397623 0.37723425 1.1440001
0.019410523 0.37723425 1.1440001
0.022423422 0.37723425 1.1440001
0.025436319 0.37723425 1.1440001
0.028449219 0.37723425 1.1440001
0.031462118 0.37723425 1.1440001
0.034475014 0.37723425 1.1440001
0.037487917 0.37723425 1.1440001
0.040500816 0.37723425 1.1440001
0.043513712 0.37723425 1.1440001
0.046526611 0.37723425 1.1440001
0.049626116 0.37789375 1.146
0.052644283 0.37789375 1.146
0.055662446 0.37789375 1.146
0.058783021 0.37855324 1.148
0.061806455 0.37855324 1.148
0.064942837 0.37921277 1.1500001
0.067971535 0.37921277 1.1500001
0.070876755 0.37855324 1.148
0.073771447 0.37789375 1.146
0.07678961 0.37789375 1.146
0.079459578 0.37624499 1.141
0.08203093 0.37426654 1.1350001
0.084271044 0.370969 1.125
0.086070783 0.36602274 1.11
0.089930095 0.35810876 1.0860001
0.091679499 0.35382199 1.0730001
0.093360417 0.34953526 1.0600001
-0.061547402 0.34434968 1.036
-0.059329916 0.34734118 1.0450001
-0.057065014 0.35033262 1.054
-0.054649703 0.35265931 1.0610001
-0.05234414 0.35598317 1.0710001
-0.049939658 0.35897461 1.08
-0.047618594 0.3629632 1.092
-0.045234323 0.36695182 1.1040001
-0.042786848 0.37094042 1.1160001
-0.040169038 0.37393185 1.125
-0.037470758 0.37659094 1.133
-0.034669463 0.37858525 1.1390001
-0.031808756 0.38024718 1.1440001
-0.028846199 0.38091192 1.146
-0.025918184 0.38224149 1.1500001
-0.02292929 0.38290623 1.1520001
-0.019929864 0.383571 1.154
-0.016861355 0.38290623 1.1520001
-0.013827387 0.38290623 1.1520001
-0.01077468 0.38224149 1.1500001
-0.0077459798 0.38224149 1.1500001
-0.0047172792 0.38224149 1.1500001
-0.0016856415 0.38157669 1.148
0.0013377917 0.38157669 1.148
0.0043612248 0.38157669 1.148
0.0073846579 0.38157669 1.148
0.010408091 0.38157669 1.148
0.013431524 0.38157669 1.148
0.016454957 0.38157669 1.148
0.01947839 0.38157669 1.148
0.022501824 0.38157669 1.148
0.025480788 0.38091192 1.146
0.028548691 0.38157669 1.148
0.031572122 0.38157669 1.148
0.034595557 0.38157669 1.148
0.037618991 0.38157669 1.148
0.040642425 0.38157669 1.148
0.043665852 0.38157669 1.148
0.046689287 0.38157669 1.148
0.049799334 0.38224149 1.1500001
0.052828036 0.38224149 1.1500001
0.055953875 0.38290623 1.1520001
0.058987845 0.38290623 1.1520001
0.062021814 0.38290623 1.1520001
0.06505578 0.38290623 1.1520001
0.068207957 0.383571 1.154
0.071123719 0.38290623 1.1520001
0.074028939 0.38224149 1.1500001
0.077057645 0.38224149 1.1500001
0.079947054 0.38157669 1.148
0.08232002 0.37858525 1.1390001
0.084720492 0.37592617 1.131
0.086536035 0.37094042 1.1160001
0.088513099 0.36695182 1.1040001
0.090261325 0.36229843 1.09
0.091850378 0.35731268 1.075
0.093800798 0.35398886 1.0650001
0.10305086 0.36695182 1.1040001
-0.059443463 0.35076335 1.0470001
-0.057173297 0.35377848 1.056
-0.054752719 0.35612363 1.0630001
-0.05234414 0.35880378 1.0710001
-0.049939658 0.36181891 1.08
-0.047618594 0.36583912 1.092
-0.045234323 0.36985937 1.1040001
-0.042863525 0.37454957 1.118
-0.040240455 0.37756476 1.1270001
-0.037536904 0.38024491 1.1350001
-0.034730338 0.38225499 1.141
-0.031864364 0.38393006 1.146
-0.028946884 0.38527015 1.1500001
-0.026008334 0.38661021 1.154
-0.02302881 0.38761526 1.1570001
-0.020016214 0.38828531 1.159
-0.016963812 0.38828531 1.159
-0.013887402 0.38761526 1.1570001
-0.010812157 0.38661021 1.154
-0.0077729221 0.38661021 1.154
-0.0047336868 0.38661021 1.154
-0.0016915149 0.38594019 1.1520001
0.0013424531 0.38594019 1.1520001
0.0043764208 0.38594019 1.1520001
0.0073975236 0.38527015 1.1500001
0.010426225 0.38527015 1.1500001
0.013478324 0.38594019 1.1520001
0.016512292 0.38594019 1.1520001
0.019512326 0.38527015 1.1500001
0.022541028 0.38527015 1.1500001
0.025569728 0.38527015 1.1500001
0.02859843 0.38527015 1.1500001
0.031682134 0.38594019 1.1520001
0.0347161 0.38594019 1.1520001
0.037750069 0.38594019 1.1520001
0.040784039 0.38594019 1.1520001
0.043818001 0.38594019 1.1520001
0.04685197 0.38594019 1.1520001
0.049972545 0.38661021 1.154
0.053149596 0.38761526 1.1570001
0.056196731 0.38761526 1.1570001
0.059243865 0.38761526 1.1570001
0.06239868 0.38828531 1.159
0.065451078 0.38828531 1.159
0.068503484 0.38828531 1.159
0.071432412 0.38761526 1.1570001
0.07447955 0.38761526 1.1570001
0.077325664 0.38661021 1.154
0.080364905 0.38661021 1.154
0.082825936 0.38393006 1.146
0.085169941 0.38091493 1.1370001
0.087001286 0.37588966 1.1220001
0.092448473 0.36248896 1.082
0.094329253 0.35880378 1.0710001
0.098329119 0.363159 1.0840001
0.10379761 0.37253949 1.1120001
-0.061785039 0.35115725 1.0400001
-0.057281584 0.35723495 1.0580001
-0.05485573 0.35959852 1.0650001
-0.052441888 0.36229971 1.0730001
-0.049939658 0.36466327 1.08
-0.047618594 0.36871508 1.092
-0.045234323 0.37276691 1.1040001
-0.042863525 0.37749401 1.118
-0.040240455 0.38053289 1.1270001
-0.037603047 0.3839094 1.1370001
-0.034821652 0.38627294 1.1440001
-0.031919975 0.38762355 1.148
-0.028997226 0.38897416 1.1520001
-0.026075946 0.39066243 1.1570001
-0.023108425 0.39201301 1.161
-0.020085296 0.39268833 1.1630001
-0.016993083 0.39201301 1.161
-0.013935413 0.39201301 1.161
-0.010859003 0.39133772 1.159
-0.007793129 0.39066243 1.1570001
-0.0047459928 0.39066243 1.1570001
-0.0016988565 0.39066243 1.1570001
0.0013447837 0.38964945 1.154
0.0043840189 0.38964945 1.154
0.0074103889 0.38897416 1.1520001
0.010444357 0.38897416 1.1520001
0.013501724 0.38964945 1.154
0.016540959 0.38964945 1.154
0.019580195 0.38964945 1.154
0.02261943 0.38964945 1.154
0.025658665 0.38964945 1.154
0.0286979 0.38964945 1.154
0.031737134 0.38964945 1.154
0.034866776 0.39066243 1.1570001
0.037913915 0.39066243 1.1570001
0.040961053 0.39066243 1.1570001
0.044008184 0.39066243 1.1570001
0.047136661 0.39133772 1.159
0.050189067 0.39133772 1.159
0.053333346 0.39201301 1.161
0.056391012 0.39201301 1.161
0.059551097 0.39268833 1.1630001
0.062614039 0.39268833 1.1630001
0.065676972 0.39268833 1.1630001
0.068739913 0.39268833 1.1630001
0.071802855 0.39268833 1.1630001
0.074865788 0.39268833 1.1630001
0.077794708 0.39201301 1.161
0.080713101 0.39133772 1.159
0.083404131 0.38964945 1.154
0.085844107 0.38694823 1.146
0.087544076 0.38120818 1.1290001
0.092961125 0.3673645 1.0880001
0.094681554 0.36297503 1.075
0.098329119 0.36601388 1.0840001
0.10379761 0.37546813 1.1120001
-0.061963268 0.35491711 1.0430001
-0.05961379 0.35729909 1.0500001
-0.057389867 0.36070195 1.0600001
-0.05485573 0.36240336 1.0650001
-0.05234414 0.36444509 1.0710001
-0.049939658 0.36750764 1.08
-0.047531381 0.37091047 1.09
-0.045152374 0.37499389 1.102
-0.042786848 0.37975788 1.1160001
-0.040240455 0.38350102 1.1270001
-0.037603047 0.38690388 1.1370001
-0.034821652 0.38928586 1.1440001
-0.031975586 0.39132759 1.1500001
-0.029123083 0.39370957 1.1570001
-0.026166096 0.39507067 1.161
-0.023148233 0.3957513 1.1630001
-0.020137105 0.39677212 1.166
-0.017066266 0.39677212 1.166
-0.01395942 0.3957513 1.1630001
-0.010877742 0.39507067 1.161
-0.0078200717 0.39507067 1.161
-0.0047624004 0.39507067 1.161
-0.0017017931 0.39439014 1.159
0.0013506103 0.39439014 1.159
0.004395416 0.39370957 1.1570001
0.0074425517 0.39370957 1.1570001
0.010489688 0.39370957 1.1570001
0.013536824 0.39370957 1.1570001
0.016583961 0.39370957 1.1570001
0.019631097 0.39370957 1.1570001
0.022678234 0.39370957 1.1570001
0.025769837 0.39439014 1.159
0.028822241 0.39439014 1.159
0.031874646 0.39439014 1.159
0.034987316 0.39507067 1.161
0.038044989 0.39507067 1.161
0.041173469 0.3957513 1.1630001
0.044236407 0.3957513 1.1630001
0.047299344 0.3957513 1.1630001
0.05049219 0.39677212 1.166
0.053654909 0.39745271 1.1680001
0.056731012 0.39745271 1.1680001
0.059807122 0.39745271 1.1680001
0.062883228 0.39745271 1.1680001
0.065959334 0.39745271 1.1680001
0.069035441 0.39745271 1.1680001
0.072111547 0.39745271 1.1680001
0.075187653 0.39745271 1.1680001
0.078129746 0.39677212 1.166
0.08099167 0.3957513 1.1630001
0.083765499 0.39439014 1.159
0.08614374 0.39132759 1.1500001
0.08800932 0.38622332 1.1350001
0.089795887 0.38111901 1.12
0.09142065 0.37567449 1.1040001
0.093132012 0.37091047 1.09
0.094945781 0.36682707 1.0780001
0.098329119 0.3688688 1.0840001
0.10323754 0.37635505 1.1060001
-0.059840888 0.3614361 1.054
-0.057389867 0.36349362 1.0600001
-0.054958746 0.36589405 1.067
-0.052441888 0.36795157 1.0730001
-0.049939658 0.37035197 1.08
-0.047531381 0.37378117 1.09
-0.045152374 0.37789616 1.102
-0.042786848 0.38269705 1.1160001
-0.040240455 0.38646916 1.1270001
-0.037603047 0.38989836 1.1370001
-0.034882531 0.3929846 1.146
-0.032031193 0.39504212 1.1520001
-0.029173424 0.39744255 1.159
-0.026211172 0.39881423 1.1630001
-0.023247752 0.40052882 1.1680001
-0.020171648 0.40052882 1.1680001
-0.017095542 0.40052882 1.1680001
-0.013995428 0.39984295 1.166
-0.010896482 0.39881423 1.1630001
-0.0078335432 0.39881423 1.1630001
-0.0047624004 0.39812836 1.161
-0.0017047297 0.39812836 1.161
0.0013529409 0.39812836 1.161
0.0044030137 0.39744255 1.159
0.007455417 0.39744255 1.159
0.010507821 0.39744255 1.159
0.013560223 0.39744255 1.159
0.016641295 0.39812836 1.161
0.019698964 0.39812836 1.161
0.022756636 0.39812836 1.161
0.025814306 0.39812836 1.161
0.028921716 0.39881423 1.1630001
0.031984653 0.39881423 1.1630001
0.035137996 0.39984295 1.166
0.038274378 0.40052882 1.1680001
0.041350484 0.40052882 1.1680001
0.044502661 0.40121466 1.1700001
0.047584035 0.40121466 1.1700001
0.050665408 0.40121466 1.1700001
0.053838659 0.40190047 1.1720001
0.056925297 0.40190047 1.1720001
0.060165554 0.40292925 1.1750001
0.063260093 0.40292925 1.1750001
0.066185214 0.40190047 1.1720001
0.069271863 0.40190047 1.1720001
0.072358504 0.40190047 1.1720001
0.075445145 0.40190047 1.1720001
0.078397773 0.40121466 1.1700001
0.081339873 0.40052882 1.1680001
0.084054597 0.39881423 1.1630001
0.086668089 0.39675671 1.1570001
0.088474564 0.39127001 1.141
0.0919175 0.38063952 1.11
0.093473785 0.37515286 1.0940001
0.095298082 0.37103781 1.082
0.098691948 0.37309533 1.0880001
0.10267748 0.37721035 1.1
0.10797392 0.38578328 1.125
-0.059840888 0.36421195 1.054
-0.057389867 0.36628526 1.0600001
-0.054958746 0.36870411 1.067
-0.052441888 0.37077746 1.0730001
-0.049847178 0.37250522 1.0780001
-0.047444168 0.37596074 1.0880001
-0.045152374 0.38079843 1.102
-0.042786848 0.38563618 1.1160001
-0.040240455 0.38943726 1.1270001
-0.037669189 0.39358389 1.1390001
-0.034882531 0.39600274 1.146
-0.032031193 0.39807606 1.1520001
-0.029223766 0.40118602 1.161
-0.026278783 0.40291378 1.166
-0.023247752 0.40360489 1.1680001
-0.020240728 0.4049871 1.1720001
-0.017124813 0.40429601 1.1700001
-0.014019434 0.40360489 1.1680001
-0.010924588 0.40291378 1.166
-0.0078537492 0.40291378 1.166
-0.0047829105 0.40291378 1.166
-0.0017076666 0.40187714 1.1630001
0.0013552717 0.40187714 1.1630001
0.0044106115 0.40118602 1.161
0.007455417 0.4004949 1.159
0.010525953 0.40118602 1.161
0.013583623 0.40118602 1.161
0.016669963 0.40187714 1.1630001
0.0197329 0.40187714 1.1630001
0.022854641 0.40291378 1.166
0.025925478 0.40291378 1.166
0.029046057 0.40360489 1.1680001
0.032122161 0.40360489 1.1680001
0.035258539 0.40429601 1.1700001
0.038405452 0.4049871 1.1720001
0.041492093 0.4049871 1.1720001
0.044578731 0.4049871 1.1720001
